ply
format ascii 1.0
comment PCL generated
element vertex 1616
property float x
property float y
property float z
element face 0
element camera 0
property float view_px
property float view_py
property float view_pz
property float x_axisx
property float x_axisy
property float x_axisz
property float y_axisx
property float y_axisy
property float y_axisz
property float z_axisx
property float z_axisy
property float z_axisz
property float focal
property float scalex
property float scaley
property float centerx
property float centery
property int viewportx
property int viewporty
property float k1
property float k2
end_header
3.2220271 -0.116129 63.650002
3.3561239 -0.115946 63.550003
3.489783 -0.115764 63.450005
3.6215739 -0.115536 63.325005
3.754302 -0.115353 63.225002
3.8865919 -0.115171 63.125004
4.018445 -0.114988 63.025005
4.1531572 -0.114897 62.975002
4.2893529 -0.114852 62.950005
4.4271979 -0.114852 62.950005
4.5686698 -0.114943 63.000004
4.7084918 -0.114988 63.025005
4.848424 -0.115034 63.050003
4.9884648 -0.11508 63.075001
5.1286159 -0.115125 63.100006
5.2667899 -0.115125 63.100006
5.407104 -0.115171 63.125004
5.5475292 -0.115217 63.150002
5.685812 -0.115217 63.150002
5.8264012 -0.115262 63.175003
5.9670992 -0.115308 63.200005
6.1054921 -0.115308 63.200005
6.243885 -0.115308 63.200005
6.382277 -0.115308 63.200005
6.5180912 -0.115262 63.175003
6.6537938 -0.115217 63.150002
6.7866998 -0.115125 63.100006
6.919385 -0.115034 63.050003
7.0490551 -0.114897 62.975002
7.186954 -0.114897 62.975002
7.3277621 -0.114943 63.000004
7.471642 -0.115034 63.050003
7.6187582 -0.115171 63.125004
7.7692752 -0.115353 63.225002
7.9171019 -0.11549 63.300003
8.0620785 -0.115581 63.350002
8.2105074 -0.115718 63.425003
8.3559742 -0.11581 63.475002
8.5050058 -0.115946 63.550003
8.6577673 -0.116129 63.650002
8.8109684 -0.116311 63.750004
8.9681139 -0.116539 63.875
9.1258097 -0.116767 64.000008
9.2840509 -0.116995 64.125
9.4354916 -0.117132 64.200005
9.5872612 -0.117269 64.275002
9.7355757 -0.11736 64.325005
9.8841076 -0.117452 64.375
10.036753 -0.117588 64.450005
10.18578 -0.11768 64.500008
10.331021 -0.117725 64.525002
10.48043 -0.117816 64.575005
10.625946 -0.117862 64.600006
10.77157 -0.117908 64.625
10.917306 -0.117953 64.650002
11.071703 -0.11809 64.725006
11.226427 -0.118227 64.800003
11.381481 -0.118364 64.875
11.532424 -0.118455 64.925003
-2.3363121 0.024397001 67.175003
-2.1875861 0.024379 67.125008
-2.0360379 0.024325 66.975006
-1.871043 0.024088999 66.325005
-1.71735 0.02397 66
-1.571039 0.023943 65.925003
-1.425598 0.023925001 65.875008
-1.280375 0.023907 65.825005
-1.134939 0.023879999 65.75
-0.989833 0.023852 65.675003
-0.84473199 0.023816001 65.575005
-0.69472402 0.023598 64.975006
-0.55138099 0.023553001 64.850006
-0.40890199 0.023526 64.775002
-0.266855 0.023507001 64.725006
-0.125026 0.023489 64.675003
0.016584 0.023471 64.625
0.158097 0.023471 64.625
0.29960999 0.023471 64.625
0.44112301 0.023471 64.625
0.58286101 0.02348 64.650002
0.72470897 0.023489 64.675003
0.867001 0.023507001 64.725006
1.009123 0.023515999 64.75
1.151798 0.023535 64.800003
1.293195 0.023526 64.775002
1.435037 0.023526 64.775002
1.570792 0.023435 64.525002
1.700809 0.02328 64.100006
1.839018 0.023252999 64.025002
1.976899 0.023226 63.950001
2.115279 0.023208 63.900005
2.255204 0.023208 63.900005
2.3941929 0.023198999 63.875
2.5340631 0.023198999 63.875
2.6728871 0.023189999 63.850002
2.8105011 0.023171 63.800003
2.9478951 0.023153 63.750004
3.0838599 0.023126001 63.675003
3.219496 0.023099 63.600002
3.354804 0.023072001 63.525002
3.4870329 0.023026001 63.400002
3.6201439 0.02299 63.300003
3.751333 0.022944 63.175003
3.8835139 0.022908 63.075001
4.0152569 0.022871999 62.975002
4.148211 0.022845 62.900002
4.2825389 0.022825999 62.850006
4.418407 0.022817001 62.825001
4.5577922 0.022825999 62.850006
4.6991529 0.022845 62.900002
4.840734 0.022863001 62.950005
4.980556 0.022871999 62.975002
5.1204882 0.022880999 63.000004
5.26053 0.02289 63.025005
5.402822 0.022908 63.075001
5.5431371 0.022917001 63.100006
5.6835608 0.022926001 63.125004
5.8217888 0.022926001 63.125004
5.962378 0.022934999 63.150002
6.0982461 0.022926001 63.125004
6.236475 0.022926001 63.125004
6.372179 0.022917001 63.100006
6.507772 0.022908 63.075001
6.640624 0.02289 63.025005
6.7732549 0.022871999 62.975002
6.908412 0.022863001 62.950005
7.043458 0.022854 62.925003
7.1841021 0.022863001 62.950005
7.3277621 0.022880999 63.000004
7.4746041 0.022908 63.075001
7.6247931 0.022944 63.175003
7.7754192 0.022980999 63.275002
7.920229 0.022999 63.325005
8.065259 0.023017 63.375004
8.2072706 0.023026001 63.400002
8.3526831 0.023043999 63.450005
8.5016613 0.023072001 63.525002
8.6509666 0.023099 63.600002
8.7971468 0.023117 63.650002
8.9505653 0.023153 63.750004
9.1079845 0.023198999 63.875
9.2731924 0.023262 64.050003
9.4354916 0.023317 64.200005
9.5872612 0.023344001 64.275002
9.7355757 0.023362 64.325005
9.8841076 0.02338 64.375
10.03286 0.023398001 64.425003
10.18578 0.023426 64.500008
10.335024 0.023444001 64.550003
10.48043 0.023452999 64.575005
10.630057 0.023471 64.625
10.779904 0.023489 64.675003
10.929971 0.023507001 64.725006
11.084531 0.023535 64.800003
11.23509 0.023553001 64.850006
11.394639 0.023589 64.950005
11.541306 0.023598 64.975006
-2.4824851 0.17129099 67.150002
-2.333704 0.17116299 67.099998
-2.185142 0.17103601 67.050003
-2.0223579 0.169696 66.525002
-1.858348 0.168038 65.875008
-1.708243 0.167464 65.650002
-1.565677 0.167592 65.699997
-1.422892 0.16772 65.75
-1.277943 0.167592 65.699997
-1.132782 0.167401 65.625008
-0.98757201 0.167146 65.525002
-0.84280002 0.16689099 65.425003
-0.69659501 0.166189 65.150002
-0.552019 0.16561501 64.925003
-0.40921801 0.16536 64.825005
-0.266958 0.165169 64.75
-0.125026 0.164977 64.675003
0.016589999 0.164914 64.650002
0.158097 0.16485 64.625
0.29960999 0.16485 64.625
0.44112301 0.16485 64.625
0.58286101 0.164914 64.650002
0.72470897 0.164977 64.675003
0.86666602 0.165041 64.700005
1.008733 0.165105 64.725006
1.151354 0.165232 64.775002
1.292696 0.165169 64.75
1.4344831 0.165169 64.75
1.5683579 0.16434 64.425003
1.698819 0.16331901 64.025002
1.835428 0.163 63.900005
1.9738081 0.162873 63.850002
2.1127961 0.162809 63.825005
2.252557 0.162809 63.825005
2.391381 0.162745 63.800003
2.5310881 0.162745 63.800003
2.6697481 0.162682 63.775002
2.8082981 0.162618 63.750004
2.9455831 0.16249 63.700001
3.082649 0.16236299 63.650002
3.218231 0.16217101 63.575005
3.3534839 0.16198 63.500004
3.4870329 0.161725 63.400002
3.618715 0.161406 63.275002
3.7498491 0.16108701 63.150002
3.8804359 0.160768 63.025005
4.0104752 0.16045 62.900002
4.1432638 0.160258 62.825001
4.2757249 0.16006701 62.750008
4.409616 0.15993901 62.700005
4.548727 0.16000301 62.725002
4.689815 0.16013101 62.775005
4.831121 0.160258 62.825001
4.9746251 0.16045 62.900002
5.1143932 0.160513 62.925003
5.2563558 0.160641 62.975002
5.3963981 0.160705 63.000004
5.538744 0.160832 63.050003
5.679059 0.160896 63.075001
5.8171778 0.160896 63.075001
5.955297 0.160896 63.075001
6.0934162 0.160896 63.075001
6.2290649 0.160832 63.050003
6.3620811 0.160705 63.000004
6.4974561 0.160641 62.975002
6.6300869 0.160513 62.925003
6.7651882 0.16045 62.900002
6.9001799 0.160386 62.875004
7.040659 0.16045 62.900002
7.1812491 0.160513 62.925003
7.3277621 0.160705 63.000004
7.486455 0.16115101 63.175003
7.6368618 0.161406 63.275002
7.7815642 0.161534 63.325005
7.9264832 0.161661 63.375004
8.065259 0.161661 63.375004
8.2105074 0.161789 63.425003
8.3526831 0.161853 63.450005
8.4949684 0.161916 63.475002
8.6407642 0.162044 63.525002
8.7867813 0.16217101 63.575005
8.9295044 0.16223501 63.600002
9.0723372 0.16229901 63.625
9.2152796 0.16236299 63.650002
9.4281445 0.163638 64.150009
9.5835323 0.163893 64.250008
9.7355757 0.164085 64.325005
9.8841076 0.164212 64.375
10.03286 0.16434 64.425003
10.181831 0.16446701 64.475006
10.335024 0.16465899 64.550003
10.484488 0.164786 64.600006
10.638283 0.164977 64.675003
10.788239 0.165105 64.725006
10.942635 0.165296 64.800003
11.093084 0.165424 64.850006
11.248084 0.16561501 64.925003
11.403412 0.165806 65
11.550186 0.16587 65.025002
-2.4806359 0.31795701 67.099998
-2.332834 0.31783801 67.075005
-2.177809 0.31665301 66.825005
-1.999558 0.31167799 65.775002
-1.840012 0.30907199 65.225006
-1.688077 0.30741301 64.875
-1.5460171 0.30741301 64.875
-1.406662 0.30800599 65
-1.273567 0.310256 65.475006
-1.1306241 0.31037501 65.5
-0.98568797 0.309901 65.400002
-0.84151202 0.30954599 65.325005
-0.69712901 0.30895299 65.200005
-0.55265701 0.30800599 65
-0.40953401 0.30741301 64.875
-0.267061 0.30693901 64.775002
-0.125074 0.306584 64.700005
0.016589999 0.30634701 64.650002
0.158097 0.306229 64.625
0.29960999 0.306229 64.625
0.44112301 0.306229 64.625
0.582636 0.306229 64.625
0.72442901 0.30634701 64.650002
0.86633098 0.30646601 64.675003
1.008343 0.306584 64.700005
1.150465 0.30670199 64.725006
1.291698 0.306584 64.700005
1.433375 0.306584 64.700005
1.565923 0.30480701 64.325005
1.692849 0.30231899 63.800003
1.83112 0.302082 63.750004
1.970716 0.302082 63.750004
2.1094861 0.30196401 63.725002
2.249028 0.30196401 63.725002
2.3885701 0.30196401 63.725002
2.5281119 0.30196401 63.725002
2.6666081 0.30184501 63.700001
2.8049941 0.301727 63.675003
2.9432709 0.30160901 63.650002
3.0802269 0.30137199 63.600002
3.216965 0.301135 63.550003
3.3521631 0.30077901 63.475002
3.4856579 0.30030501 63.375004
3.617285 0.29971299 63.250004
3.748364 0.29912099 63.125004
3.878896 0.29852799 63.000004
4.0088811 0.29793599 62.875004
4.138319 0.297344 62.750008
4.2689109 0.29686999 62.650002
4.4025841 0.29663301 62.600006
4.5396619 0.29663301 62.600006
4.6804762 0.29686999 62.650002
4.823432 0.297225 62.725002
4.9667158 0.29758099 62.800003
5.1082959 0.29781801 62.850006
5.2500958 0.29805499 62.900002
5.3921151 0.29829201 62.950005
5.5343518 0.29852799 63.000004
5.6745572 0.29864699 63.025005
5.8125672 0.29864699 63.025005
5.9505758 0.29864699 63.025005
6.0885859 0.29864699 63.025005
6.2216549 0.29841 62.975002
6.3570299 0.29829201 62.950005
6.489717 0.29805499 62.900002
6.6221852 0.29781801 62.850006
6.757122 0.297699 62.825001
6.8974371 0.29781801 62.850006
7.0378609 0.29793599 62.875004
7.1812491 0.29817301 62.925003
7.3423009 0.29912099 63.125004
7.50423 0.30006799 63.325005
7.648932 0.30030501 63.375004
7.7907791 0.30042401 63.400002
7.9296098 0.30042401 63.400002
8.0684404 0.30042401 63.400002
8.2105074 0.300542 63.425003
8.3526831 0.300661 63.450005
8.4916229 0.300661 63.450005
8.6339636 0.30077901 63.475002
8.7729597 0.30077901 63.475002
8.9119539 0.30077901 63.475002
9.0509491 0.30077901 63.475002
9.1863241 0.300661 63.450005
9.332613 0.30089799 63.500004
9.5760736 0.30421501 64.200005
9.7280073 0.30456999 64.275002
9.8764315 0.30480701 64.325005
10.025074 0.305044 64.375
10.177883 0.305399 64.450005
10.331021 0.30575499 64.525002
10.484488 0.30610999 64.600006
10.638283 0.30646601 64.675003
10.796573 0.30693901 64.775002
10.951078 0.30729499 64.850006
11.105914 0.30765 64.925003
11.256747 0.30788699 64.975006
11.407797 0.30812401 65.025002
11.559068 0.30836099 65.075005
-2.6246319 0.46423 67.025009
-2.477864 0.46423 67.025009
-2.329356 0.463884 66.975006
-2.1492929 0.45678499 65.949997
-1.979798 0.45107001 65.125
-1.828022 0.44881901 64.800003
-1.686126 0.44881901 64.800003
-1.54423 0.44881901 64.800003
-1.403416 0.449166 64.850006
-1.264328 0.450205 65
-1.12674 0.45210901 65.275002
-0.98418099 0.45228299 65.300003
-0.84054601 0.45193601 65.25
-0.69686198 0.451417 65.175003
-0.55308199 0.450551 65.050003
-0.40984899 0.44968501 64.925003
-0.26716399 0.44881901 64.800003
-0.12512299 0.4483 64.725006
0.016596001 0.447954 64.675003
0.158097 0.44760701 64.625
0.299494 0.44743401 64.600006
0.440952 0.44743401 64.600006
0.58240998 0.44743401 64.600006
0.72414798 0.44760701 64.625
0.86566103 0.44760701 64.625
1.007174 0.44760701 64.625
1.149132 0.44778001 64.650002
1.2902 0.44760701 64.625
1.43116 0.44743401 64.600006
1.555577 0.442586 63.900005
1.689532 0.44102699 63.675003
1.828247 0.44085401 63.650002
1.967625 0.44085401 63.650002
2.107003 0.44085401 63.650002
2.246381 0.44085401 63.650002
2.3857591 0.44085401 63.650002
2.5251369 0.44085401 63.650002
2.664515 0.44085401 63.650002
2.8027921 0.44068101 63.625
2.940959 0.44050801 63.600002
3.077806 0.440162 63.550003
3.215699 0.43998799 63.525002
3.350843 0.43946901 63.450005
3.484283 0.43877599 63.350002
3.617285 0.43808401 63.250004
3.748364 0.43721801 63.125004
3.878896 0.43635201 63.000004
4.0088811 0.43548599 62.875004
4.1350212 0.43427399 62.700005
4.2638011 0.43340901 62.575001
4.3955498 0.43288901 62.5
4.5305982 0.43271601 62.475002
4.6711378 0.43306199 62.525005
4.8138199 0.43358201 62.600006
4.958807 0.43427399 62.700005
5.102201 0.43479401 62.775005
5.245923 0.43531299 62.850006
5.3878322 0.43566 62.900002
5.5299602 0.43600601 62.950005
5.6700549 0.43617901 62.975002
5.8102622 0.43635201 63.000004
5.948216 0.43635201 63.000004
6.083755 0.43617901 62.975002
6.2191849 0.43600601 62.950005
6.3519812 0.43566 62.900002
6.4845591 0.43531299 62.850006
6.6195502 0.43514001 62.825001
6.757122 0.43514001 62.825001
6.8974371 0.43531299 62.850006
7.0378609 0.43548599 62.875004
7.186954 0.43617901 62.975002
7.3626561 0.43843001 63.300003
7.5101562 0.43895 63.375004
7.651948 0.439123 63.400002
7.7938509 0.43929601 63.425003
7.9327369 0.43929601 63.425003
8.0716219 0.43929601 63.425003
8.2105074 0.43929601 63.425003
8.3493929 0.43929601 63.425003
8.4882784 0.43929601 63.425003
8.6305637 0.43946901 63.450005
8.7660494 0.43929601 63.425003
8.9049349 0.43929601 63.425003
9.0402546 0.439123 63.400002
9.1790848 0.439123 63.400002
9.3215904 0.43929601 63.425003
9.4753914 0.43998799 63.525002
9.7166557 0.444664 64.200005
9.8649158 0.44501001 64.250008
10.013394 0.44535601 64.300003
10.166039 0.445876 64.375
10.323016 0.44656801 64.475006
10.484488 0.44743401 64.600006
10.646507 0.4483 64.725006
10.804907 0.448993 64.825005
10.959522 0.449512 64.900002
11.114467 0.450032 64.975006
11.265409 0.450378 65.025002
11.41657 0.45072401 65.075005
11.563508 0.45089701 65.100006
-2.913815 0.60994798 66.925003
-2.7693329 0.61040401 66.975006
-2.6236529 0.610632 67
-2.475091 0.61017603 66.950005
-2.2937069 0.601062 65.949997
-2.130554 0.59582198 65.375
-1.9691581 0.59035301 64.775002
-1.826612 0.59012502 64.75
-1.685475 0.59035301 64.775002
-1.5436341 0.59035301 64.775002
-1.402333 0.590581 64.800003
-1.26141 0.59103698 64.850006
-1.122425 0.592632 65.025002
-0.982297 0.59399903 65.175003
-0.83957899 0.59399903 65.175003
-0.69632697 0.59354299 65.125
-0.55308199 0.59285998 65.050003
-0.40984899 0.59171999 64.925003
-0.26726699 0.59080899 64.825005
-0.12512299 0.58989799 64.725006
0.016589999 0.58921403 64.650002
0.158035 0.58875799 64.600006
0.299494 0.58875799 64.600006
0.440781 0.58853 64.575005
0.58218497 0.58853 64.575005
0.72358799 0.58853 64.575005
0.86499202 0.58853 64.575005
1.006395 0.58853 64.575005
1.147354 0.58830303 64.550003
1.288204 0.58807498 64.525002
1.428944 0.58784699 64.500008
1.5501 0.58032799 63.675003
1.688206 0.57987201 63.625
1.826811 0.57964402 63.600002
1.965307 0.57941699 63.575005
2.1045201 0.57941699 63.575005
2.2437339 0.57941699 63.575005
2.3829479 0.57941699 63.575005
2.522162 0.57941699 63.575005
2.661376 0.57941699 63.575005
2.7994881 0.579189 63.550003
2.938647 0.579189 63.550003
3.0765951 0.57896101 63.525002
3.2131679 0.57850498 63.475002
3.3495231 0.578049 63.425003
3.484283 0.57736599 63.350002
3.617285 0.576455 63.250004
3.7498491 0.57554299 63.150002
3.8804359 0.574404 63.025005
4.0104752 0.57326502 62.900002
4.1350212 0.57144201 62.700005
4.2569871 0.56939101 62.475002
4.390276 0.56893599 62.425007
4.5251579 0.568708 62.400002
4.6636682 0.56893599 62.425007
4.806129 0.569619 62.5
4.9508991 0.57053 62.600006
5.0961051 0.57144201 62.700005
5.2396631 0.57212502 62.775005
5.3835492 0.57280898 62.850006
5.5255671 0.57326502 62.900002
5.6678052 0.57371998 62.950005
5.8079562 0.57394803 62.975002
5.9458551 0.57394803 62.975002
6.083755 0.57394803 62.975002
6.2191849 0.57371998 62.950005
6.3519812 0.57326502 62.900002
6.4871378 0.57303703 62.875004
6.6221852 0.57280898 62.850006
6.75981 0.57280898 62.850006
6.9001799 0.57303703 62.875004
7.0462561 0.57371998 62.950005
7.204073 0.575315 63.125004
7.3626561 0.57691002 63.300003
7.5071931 0.57736599 63.350002
7.651948 0.57782203 63.400002
7.7907791 0.57782203 63.400002
7.9296098 0.57782203 63.400002
8.0684404 0.57782203 63.400002
8.2072706 0.57782203 63.400002
8.3493929 0.578049 63.425003
8.4882784 0.578049 63.425003
8.6271629 0.578049 63.425003
8.7625933 0.57782203 63.400002
8.8979139 0.57759398 63.375004
9.0366898 0.57759398 63.375004
9.1754656 0.57759398 63.375004
9.3215904 0.578049 63.425003
9.4679327 0.57850498 63.475002
9.6523333 0.58123899 63.775002
9.8418846 0.58420098 64.100006
9.9900351 0.58465701 64.150009
10.142351 0.58534098 64.224998
10.303001 0.58648002 64.350006
10.476373 0.58830303 64.550003
10.65062 0.59012502 64.75
10.809073 0.59103698 64.850006
10.967965 0.59194797 64.950005
11.118744 0.59240401 65
11.274071 0.59308702 65.075005
11.420956 0.59331501 65.100006
11.567948 0.59354299 65.125
-3.420259 0.739124 65.400002
-3.2732911 0.738276 65.325005
-3.1290469 0.737993 65.300003
-2.9837699 0.73742801 65.25
-2.8441529 0.738276 65.325005
-2.766232 0.75607598 66.900002
-2.6207161 0.75635898 66.925003
-2.4566059 0.75098997 66.450005
-2.269361 0.73742801 65.25
-2.1126289 0.73262501 64.825005
-1.967638 0.73149502 64.725006
-1.825201 0.73121202 64.700005
-1.684175 0.73149502 64.725006
-1.543038 0.73177803 64.75
-1.401252 0.73177803 64.75
-1.260437 0.73234302 64.800003
-1.119404 0.73290801 64.850006
-0.97965902 0.73460299 65
-0.83829099 0.73545098 65.075005
-0.695526 0.73516798 65.050003
-0.55265701 0.73460299 65
-0.40969101 0.733473 64.900002
-0.267061 0.73206002 64.775002
-0.125026 0.73092997 64.675003
0.016584 0.73036498 64.625
0.157974 0.72979999 64.575005
0.29926199 0.72951698 64.550003
0.440611 0.72951698 64.550003
0.581734 0.72923499 64.525002
0.723028 0.72923499 64.525002
0.86432201 0.72923499 64.525002
1.005226 0.72895199 64.500008
1.145577 0.728387 64.450005
1.285709 0.72782201 64.400009
1.4250669 0.72697401 64.325005
1.5501 0.71962798 63.675003
1.688206 0.71906298 63.625
1.826093 0.71849799 63.575005
1.964534 0.718216 63.550003
2.102865 0.717933 63.525002
2.2419691 0.717933 63.525002
2.381074 0.717933 63.525002
2.519186 0.71765101 63.500004
2.658236 0.71765101 63.500004
2.7972851 0.71765101 63.500004
2.9363351 0.71765101 63.500004
3.074173 0.71736801 63.475002
3.2119031 0.717085 63.450005
3.3495231 0.71680301 63.425003
3.484283 0.71595502 63.350002
3.617285 0.71482497 63.250004
3.7498491 0.71369499 63.150002
3.8804359 0.712282 63.025005
4.0120692 0.71115202 62.925003
4.1350212 0.70860898 62.700005
4.2518759 0.70521897 62.400002
4.3850012 0.70465398 62.350006
4.5197201 0.70437098 62.325001
4.6580639 0.70465398 62.350006
4.79844 0.70521897 62.400002
4.9429889 0.70634902 62.5
5.0879769 0.707479 62.600006
5.2334032 0.70860898 62.700005
5.3771248 0.70945698 62.775005
5.5211749 0.71030498 62.850006
5.6633029 0.71087003 62.900002
5.8056502 0.71143502 62.950005
5.9458551 0.71171701 62.975002
6.083755 0.71171701 62.975002
6.2216549 0.71171701 62.975002
6.3570299 0.71143502 62.950005
6.4922972 0.71115202 62.925003
6.6274519 0.71087003 62.900002
6.7651882 0.71087003 62.900002
6.908412 0.71143502 62.950005
7.0574498 0.712565 63.050003
7.2097788 0.71397799 63.175003
7.3568411 0.71482497 63.250004
7.50423 0.71567303 63.325005
7.6459141 0.71595502 63.350002
7.7846351 0.71595502 63.350002
7.9264832 0.71623802 63.375004
8.065259 0.71623802 63.375004
8.2072706 0.71652001 63.400002
8.3461008 0.71652001 63.400002
8.4882784 0.71680301 63.425003
8.6271629 0.71680301 63.425003
8.7625933 0.71652001 63.400002
8.8979139 0.71623802 63.375004
9.0366898 0.71623802 63.375004
9.1754656 0.71623802 63.375004
9.3215904 0.71680301 63.425003
9.4716635 0.71765101 63.500004
9.6371965 0.71962798 63.675003
9.8073387 0.72188902 63.875
9.9627819 0.723019 63.974998
10.110768 0.723584 64.025002
10.242961 0.723019 63.974998
10.370879 0.72217101 63.900005
10.50258 0.72160602 63.850002
10.81324 0.73319 64.875
10.972188 0.73431998 64.975006
11.127296 0.73516798 65.050003
11.278402 0.73573297 65.100006
11.425341 0.73601598 65.125
11.57239 0.73629802 65.150002
-3.8543041 0.88321 65.475006
-3.7109301 0.88321 65.475006
-3.564831 0.88253498 65.425003
-3.418951 0.88186002 65.375
-3.2732911 0.88118601 65.325005
-3.1278491 0.880512 65.275002
-2.982626 0.87983698 65.225006
-2.838711 0.87949997 65.200005
-2.6959391 0.87949997 65.200005
-2.5531671 0.87949997 65.200005
-2.409471 0.87916303 65.175003
-2.2641449 0.878151 65.100006
-2.1101849 0.87343001 64.75
-1.9668781 0.87275499 64.700005
-1.824496 0.87241799 64.675003
-1.683524 0.87275499 64.700005
-1.542442 0.87309301 64.725006
-1.4007111 0.87309301 64.725006
-1.259465 0.87343001 64.75
-1.117678 0.87343001 64.75
-0.97626799 0.87376702 64.775002
-0.83668101 0.87612802 64.950005
-0.69472402 0.87646502 64.975006
-0.552019 0.87579 64.925003
-0.40921801 0.87444198 64.825005
-0.266752 0.87275499 64.700005
-0.124929 0.87174398 64.625
0.016564 0.87073201 64.550003
0.15785199 0.870395 64.525002
0.29903001 0.87005699 64.500008
0.44026899 0.87005699 64.500008
0.58128297 0.86971998 64.475006
0.72246802 0.86971998 64.475006
0.86331701 0.86938298 64.450005
1.003668 0.86870903 64.400009
1.1437989 0.86803401 64.350006
1.282714 0.86668497 64.250008
1.418421 0.86365002 64.025002
1.551317 0.85960299 63.725002
1.688206 0.85825402 63.625
1.826093 0.85758001 63.575005
1.963761 0.85690498 63.525002
2.1020379 0.85656798 63.500004
2.240205 0.85623097 63.475002
2.3792 0.85623097 63.475002
2.518194 0.85623097 63.475002
2.656143 0.85589403 63.450005
2.795083 0.85589403 63.450005
2.9340229 0.85589403 63.450005
3.072963 0.85589403 63.450005
3.2106371 0.85555601 63.425003
3.348202 0.85521901 63.400002
3.484283 0.854545 63.350002
3.618715 0.85353303 63.275002
3.751333 0.852184 63.175003
3.8819749 0.85049802 63.050003
4.0152569 0.84948599 62.975002
4.1416159 0.84712601 62.800003
4.2501731 0.84139299 62.375004
4.3832431 0.84071797 62.325001
4.5160942 0.84004402 62.275005
4.6524611 0.84004402 62.275005
4.7926731 0.84071797 62.325001
4.935081 0.84173 62.400002
5.0798488 0.84307897 62.5
5.2250562 0.844428 62.600006
5.3728418 0.84611398 62.725002
5.5167818 0.84712601 62.800003
5.6610522 0.84813702 62.875004
5.8056502 0.84914899 62.950005
5.948216 0.84982401 63.000004
6.0885859 0.85016102 63.025005
6.2265949 0.85016102 63.025005
6.3646049 0.85016102 63.025005
6.5000348 0.84982401 63.000004
6.63799 0.84982401 63.000004
6.7759442 0.84982401 63.000004
6.919385 0.85049802 63.050003
7.0630469 0.85117298 63.100006
7.2097788 0.852184 63.175003
7.3539319 0.85285902 63.225002
7.4983048 0.85353303 63.275002
7.6368618 0.85353303 63.275002
7.778491 0.85386997 63.300003
7.9171019 0.85386997 63.300003
8.0588961 0.85420799 63.325005
8.200798 0.854545 63.350002
8.3461008 0.85521901 63.400002
8.484931 0.85521901 63.400002
8.6237621 0.85521901 63.400002
8.7625933 0.85521901 63.400002
8.8979139 0.854882 63.375004
9.0366898 0.854882 63.375004
9.1790848 0.85521901 63.400002
9.325264 0.85589403 63.450005
9.4753914 0.85690498 63.525002
9.6371965 0.85892898 63.675003
9.7919846 0.86027801 63.775002
9.9472094 0.86162698 63.875
10.091028 0.86196399 63.900005
10.22695 0.86162698 63.875
10.362763 0.86128902 63.850002
10.498467 0.86095202 63.825005
10.638228 0.86095202 63.825005
10.976409 0.87680203 65
11.131573 0.87781399 65.075005
11.278402 0.878151 65.100006
11.429728 0.87882501 65.150002
-3.9961519 1.0260561 65.449997
-3.8528321 1.0260561 65.449997
-3.709512 1.0260561 65.449997
-3.5634689 1.025272 65.400002
-3.417644 1.024488 65.349998
-3.272038 1.0237041 65.300003
-3.1278491 1.023312 65.275002
-2.982626 1.022529 65.225006
-2.838711 1.022137 65.200005
-2.6959391 1.022137 65.200005
-2.5521879 1.021745 65.175003
-2.4076221 1.020961 65.125
-2.2606671 1.019001 65
-2.108556 1.014298 64.700005
-1.966118 1.013906 64.675003
-1.823791 1.013514 64.650002
-1.682873 1.013906 64.675003
-1.541847 1.014298 64.700005
-1.400169 1.014298 64.700005
-1.258492 1.014298 64.700005
-1.116383 1.013906 64.675003
-0.97400701 1.013122 64.625
-0.83184999 1.012339 64.575005
-0.69312 1.016258 64.825005
-0.55095601 1.015866 64.800003
-0.40827101 1.013906 64.675003
-0.266339 1.01273 64.600006
-0.124736 1.011555 64.525002
0.016545 1.010771 64.475006
0.15766799 1.010379 64.450005
0.298682 1.009987 64.425003
0.43975699 1.009987 64.425003
0.580832 1.009987 64.425003
0.72190702 1.009987 64.425003
0.86264801 1.009595 64.400009
1.002889 1.008811 64.350006
1.1424659 1.007635 64.275002
1.280717 1.005676 64.150009
1.417313 1.002932 63.974998
1.552534 0.99979699 63.775002
1.689532 0.99822903 63.675003
1.826093 0.99666202 63.575005
1.963761 0.99587798 63.525002
2.1020379 0.99548602 63.500004
2.240205 0.995094 63.475002
2.378263 0.99470198 63.450005
2.516211 0.99431002 63.425003
2.6550961 0.99431002 63.425003
2.7939811 0.99431002 63.425003
2.9328671 0.99431002 63.425003
3.0717521 0.99431002 63.425003
3.2106371 0.99431002 63.425003
3.348202 0.993918 63.400002
3.484283 0.99313402 63.350002
3.618715 0.99195898 63.275002
3.751333 0.99039102 63.175003
3.8835139 0.988823 63.075001
4.0152569 0.98725498 62.975002
4.1465621 0.98568797 62.875004
4.2569871 0.97941703 62.475002
4.381485 0.97667301 62.300003
4.5160942 0.976282 62.275005
4.6505928 0.97588998 62.25
4.7888279 0.976282 62.275005
4.9291492 0.97706503 62.325001
5.0737538 0.97863299 62.425007
5.2187958 0.98020101 62.525005
5.3664169 0.98215997 62.650002
5.514586 0.98412001 62.775005
5.6610522 0.98568797 62.875004
5.8056502 0.98686302 62.950005
5.9505758 0.98803902 63.025005
6.091001 0.98843098 63.050003
6.231535 0.988823 63.075001
6.372179 0.98921502 63.100006
6.5103521 0.98921502 63.100006
6.6485262 0.98921502 63.100006
6.7866998 0.98921502 63.100006
6.9248729 0.98921502 63.100006
7.065845 0.98960698 63.125004
7.2097788 0.99039102 63.175003
7.3510251 0.99078298 63.200005
7.489418 0.99078298 63.200005
7.630827 0.991175 63.225002
7.7692752 0.991175 63.225002
7.9108491 0.99156702 63.250004
8.0525322 0.99195898 63.275002
8.1943254 0.99234998 63.300003
8.3395205 0.99313402 63.350002
8.4815865 0.99352598 63.375004
8.6237621 0.993918 63.400002
8.7625933 0.993918 63.400002
8.8979139 0.99352598 63.375004
9.0402546 0.993918 63.400002
9.1827049 0.99431002 63.425003
9.3289375 0.995094 63.475002
9.4791193 0.99627 63.550003
9.6371965 0.99822903 63.675003
9.788147 0.99940503 63.750004
9.9394236 1.000581 63.825005
10.083132 1.000973 63.850002
10.222948 1.000973 63.850002
10.358706 1.000581 63.825005
10.498467 1.000581 63.825005
10.638228 1.000581 63.825005
10.782211 1.000973 63.850002
11.131573 1.020177 65.075005
11.278402 1.020569 65.100006
11.425341 1.020961 65.125
-3.9946251 1.168793 65.425003
-3.851361 1.168793 65.425003
-3.7066791 1.168346 65.400002
-3.5621071 1.1679 65.375
-3.416337 1.167006 65.325005
-3.2707851 1.166113 65.275002
-3.126651 1.1656671 65.25
-2.981483 1.164773 65.200005
-2.838711 1.164773 65.200005
-2.694905 1.164327 65.175003
-2.551209 1.16388 65.150002
-2.406698 1.162987 65.100006
-2.2597971 1.160754 64.975006
-2.1077411 1.155394 64.675003
-1.965358 1.154948 64.650002
-1.823085 1.154501 64.625
-1.682223 1.154948 64.650002
-1.5412509 1.155394 64.675003
-1.399628 1.155394 64.675003
-1.25752 1.154948 64.650002
-1.1150891 1.154055 64.600006
-0.97250003 1.152715 64.525002
-0.82991803 1.150928 64.425003
-0.688308 1.150035 64.375
-0.548406 1.1522681 64.500008
-0.407166 1.1522681 64.500008
-0.26572099 1.1513751 64.450005
-0.124543 1.150928 64.425003
0.016526001 1.1504821 64.400009
0.15748499 1.150035 64.375
0.29845101 1.150035 64.375
0.43941599 1.150035 64.375
0.58038199 1.150035 64.375
0.72134697 1.150035 64.375
0.86164302 1.149142 64.325005
1.00172 1.148249 64.275002
1.141133 1.146909 64.200005
1.279719 1.1451221 64.100006
1.416759 1.142442 63.950001
1.553751 1.140209 63.825005
1.690196 1.1379761 63.700001
1.826811 1.1361901 63.600002
1.964534 1.1352969 63.550003
2.1020379 1.134403 63.500004
2.2393219 1.13351 63.450005
2.377326 1.133064 63.425003
2.515219 1.132617 63.400002
2.653003 1.13217 63.375004
2.791779 1.13217 63.375004
2.9305539 1.13217 63.375004
3.0705409 1.132617 63.400002
3.209372 1.132617 63.400002
3.3468821 1.13217 63.375004
3.484283 1.131724 63.350002
3.618715 1.130384 63.275002
3.7528181 1.1290441 63.200005
3.8850529 1.1272579 63.100006
4.0168509 1.125471 63.000004
4.1465621 1.123238 62.875004
4.2689109 1.119218 62.650002
4.3832431 1.113412 62.325001
4.5160942 1.112519 62.275005
4.6505928 1.1120729 62.25
4.7869048 1.1120729 62.25
4.9251952 1.112519 62.275005
5.0676579 1.1138591 62.350006
5.214622 1.116092 62.475002
5.3621349 1.118325 62.600006
5.5123911 1.1210051 62.750008
5.6610522 1.123238 62.875004
5.8079562 1.125024 62.975002
5.9529362 1.126364 63.050003
6.0982461 1.127704 63.125004
6.238945 1.1281511 63.150002
6.3797531 1.128597 63.175003
6.5180912 1.128597 63.175003
6.6564279 1.128597 63.175003
6.7947659 1.128597 63.175003
6.9303598 1.1281511 63.150002
7.0686431 1.1281511 63.150002
7.2069259 1.1281511 63.150002
7.3452091 1.1281511 63.150002
7.4834919 1.1281511 63.150002
7.6217752 1.1281511 63.150002
7.7600579 1.1281511 63.150002
7.9014692 1.128597 63.175003
8.0429878 1.1290441 63.200005
8.1878538 1.1299371 63.250004
8.3329372 1.130831 63.300003
8.4748945 1.131277 63.325005
8.6169605 1.131724 63.350002
8.7591381 1.13217 63.375004
8.8979139 1.13217 63.375004
9.0402546 1.132617 63.400002
9.1827049 1.133064 63.425003
9.332613 1.134403 63.500004
9.4828491 1.135743 63.575005
9.6371965 1.13753 63.675003
9.788147 1.13887 63.750004
9.9355288 1.139763 63.800003
10.079185 1.140209 63.825005
10.218946 1.140209 63.825005
10.358706 1.140209 63.825005
10.498467 1.140209 63.825005
10.642395 1.140656 63.850002
10.786433 1.141103 63.875
10.951962 1.143782 64.025002
11.282733 1.163433 65.125
11.429728 1.16388 65.150002
-4.1363091 1.31142 65.400002
-3.993099 1.31142 65.400002
-3.848417 1.310919 65.375
-3.703845 1.310418 65.349998
-3.559382 1.309916 65.325005
-3.415029 1.309415 65.300003
-3.2707851 1.3089139 65.275002
-3.125453 1.307911 65.225006
-2.981483 1.30741 65.200005
-2.8376219 1.306909 65.175003
-2.693871 1.306407 65.150002
-2.55023 1.3059061 65.125
-2.40485 1.304402 65.050003
-2.257189 1.301394 64.900002
-2.106926 1.296381 64.650002
-1.9645979 1.29588 64.625
-1.8223799 1.295379 64.600006
-1.681572 1.29588 64.625
-1.540655 1.296381 64.650002
-1.398546 1.29588 64.625
-1.256547 1.295379 64.600006
-1.113363 1.293373 64.500008
-0.97061598 1.291368 64.400009
-0.82830799 1.289363 64.300003
-0.68670499 1.287859 64.224998
-0.546067 1.287859 64.224998
-0.405904 1.289363 64.300003
-0.265102 1.289363 64.300003
-0.12435 1.2898639 64.325005
0.016507 1.2898639 64.325005
0.157363 1.2898639 64.325005
0.298219 1.2898639 64.325005
0.43907499 1.2898639 64.325005
0.57993102 1.2898639 64.325005
0.72078699 1.2898639 64.325005
0.86130798 1.289363 64.300003
1.00133 1.28836 64.250008
1.140689 1.2868561 64.175003
1.27922 1.284851 64.075005
1.417313 1.282846 63.974998
1.55436 1.280339 63.850002
1.690859 1.277833 63.725002
1.827529 1.275828 63.625
1.964534 1.2743241 63.550003
2.1012101 1.27282 63.475002
2.2393219 1.272318 63.450005
2.3763881 1.2713161 63.400002
2.5142269 1.270815 63.375004
2.651957 1.270313 63.350002
2.7906771 1.270313 63.350002
2.929399 1.270313 63.350002
3.06933 1.270815 63.375004
3.208106 1.270815 63.375004
3.345562 1.270313 63.350002
3.482908 1.269812 63.325005
3.618715 1.268809 63.275002
3.7528181 1.267305 63.200005
3.8850529 1.2653 63.100006
4.0168509 1.2632951 63.000004
4.1465621 1.260788 62.875004
4.2723179 1.257279 62.700005
4.390276 1.251765 62.425007
4.5179071 1.249258 62.300003
4.6505928 1.248256 62.25
4.7869048 1.248256 62.25
4.9251952 1.248757 62.275005
5.0656261 1.24976 62.325001
5.2104492 1.251765 62.425007
5.359993 1.254773 62.575001
5.5123911 1.2582819 62.750008
5.6633029 1.26129 62.900002
5.8102622 1.2632951 63.000004
5.9576569 1.2653 63.100006
6.1006608 1.2663029 63.150002
6.243885 1.267305 63.200005
6.3873272 1.268308 63.250004
6.5258288 1.268308 63.250004
6.661696 1.267807 63.225002
6.8001428 1.267807 63.225002
6.933104 1.266804 63.175003
7.0686431 1.2663029 63.150002
7.2069259 1.2663029 63.150002
7.3423009 1.265801 63.125004
7.4805298 1.265801 63.125004
7.6157408 1.2653 63.100006
7.7539148 1.2653 63.100006
7.895215 1.265801 63.125004
8.0366249 1.2663029 63.150002
8.1781445 1.266804 63.175003
8.3230639 1.267807 63.225002
8.4648571 1.268308 63.250004
8.6101599 1.26931 63.300003
8.7522287 1.269812 63.325005
8.8908949 1.269812 63.325005
9.0366898 1.270815 63.375004
9.1827049 1.271817 63.425003
9.332613 1.273321 63.500004
9.486578 1.275326 63.600002
9.6371965 1.27683 63.675003
9.788147 1.278334 63.750004
9.9355288 1.279337 63.800003
10.079185 1.279838 63.825005
10.222948 1.280339 63.850002
10.358706 1.279838 63.825005
10.498467 1.279838 63.825005
10.646563 1.280841 63.875
10.786433 1.280841 63.875
10.943409 1.282846 63.974998
11.217766 1.298386 64.75
11.438498 1.30741 65.200005
-4.276248 1.453383 65.349998
-4.1331468 1.453383 65.349998
-3.9885199 1.452827 65.325005
-3.845474 1.452827 65.325005
-3.7010109 1.452271 65.300003
-3.556658 1.451715 65.275002
-3.4124141 1.451159 65.25
-3.2695329 1.451159 65.25
-3.125453 1.450603 65.225006
-2.981483 1.450047 65.200005
-2.8376219 1.449491 65.175003
-2.693871 1.448935 65.150002
-2.5492511 1.447823 65.100006
-2.4039249 1.446155 65.025002
-2.256319 1.442819 64.875
-2.106926 1.437815 64.650002
-1.9645979 1.437258 64.625
-1.8216749 1.436147 64.575005
-1.680271 1.436147 64.575005
-1.539464 1.436703 64.600006
-1.397464 1.436147 64.575005
-1.255088 1.435035 64.525002
-1.1120681 1.432811 64.425003
-0.968732 1.4294749 64.275002
-0.82669801 1.427251 64.175003
-0.685368 1.425583 64.100006
-0.54500502 1.425583 64.100006
-0.404957 1.426695 64.150009
-0.26469001 1.427807 64.200005
-0.124156 1.428362 64.224998
0.016487001 1.428919 64.250008
0.15724 1.4294749 64.275002
0.29798701 1.4294749 64.275002
0.43890399 1.4300309 64.300003
0.579705 1.4300309 64.300003
0.720227 1.4294749 64.275002
0.86063802 1.428919 64.250008
1.000941 1.428362 64.224998
1.140245 1.426695 64.150009
1.27922 1.425027 64.075005
1.417313 1.422803 63.974998
1.55436 1.420023 63.850002
1.691522 1.417799 63.750004
1.828247 1.415575 63.650002
1.964534 1.4133511 63.550003
2.1012101 1.411683 63.475002
2.23844 1.410571 63.425003
2.375452 1.409459 63.375004
2.5132351 1.408903 63.350002
2.6509099 1.408347 63.325005
2.7895761 1.408347 63.325005
2.928242 1.408347 63.325005
3.0669091 1.408347 63.325005
3.206841 1.408903 63.350002
3.3442421 1.408347 63.325005
3.4815331 1.407791 63.300003
3.617285 1.406679 63.250004
3.7528181 1.405567 63.200005
3.8850529 1.403343 63.100006
4.0168509 1.401119 63.000004
4.1465621 1.398339 62.875004
4.2740221 1.395003 62.725002
4.3973079 1.390555 62.525005
4.5233459 1.387219 62.375004
4.6543279 1.385551 62.300003
4.7888279 1.384995 62.275005
4.9251952 1.384995 62.275005
5.0656261 1.386107 62.325001
5.2104492 1.3883311 62.425007
5.359993 1.391667 62.575001
5.5123911 1.395559 62.750008
5.6633029 1.398895 62.900002
5.8125672 1.401675 63.025005
5.9600182 1.403899 63.125004
6.1054921 1.405567 63.200005
6.2488251 1.406679 63.250004
6.3898511 1.407235 63.275002
6.5309868 1.407791 63.300003
6.666965 1.407235 63.275002
6.8001428 1.406123 63.225002
6.9358482 1.405567 63.200005
7.0686431 1.4044549 63.150002
7.20122 1.403343 63.100006
7.3393941 1.403343 63.100006
7.4746041 1.402787 63.075001
7.6127229 1.402787 63.075001
7.7508421 1.402787 63.075001
7.8889608 1.402787 63.075001
8.0270796 1.402787 63.075001
8.1684351 1.403343 63.100006
8.3098993 1.403899 63.125004
8.4548197 1.4050111 63.175003
8.5965586 1.405567 63.200005
8.7384071 1.406123 63.225002
8.8838739 1.407235 63.275002
9.0295601 1.408347 63.325005
9.1754656 1.409459 63.375004
9.3289375 1.411683 63.475002
9.4828491 1.4139071 63.575005
9.6409817 1.416687 63.700001
9.7919846 1.418355 63.775002
9.9394236 1.419467 63.825005
10.08708 1.420579 63.875
10.22695 1.420579 63.875
10.36682 1.420579 63.875
10.506692 1.420579 63.875
10.650729 1.4211349 63.900005
10.794876 1.4216909 63.925003
10.956238 1.424471 64.050003
11.174454 1.434479 64.500008
-4.4869738 1.620775 66.349998
-4.274611 1.595737 65.325005
-4.1299839 1.595126 65.300003
-3.985467 1.594515 65.275002
-3.841059 1.593905 65.25
-3.6967609 1.593294 65.225006
-3.5525711 1.592683 65.200005
-3.4097991 1.592683 65.200005
-3.2670269 1.592683 65.200005
-3.1242549 1.592683 65.200005
-2.981483 1.592683 65.200005
-2.8376219 1.592073 65.175003
-2.693871 1.591462 65.150002
-2.5482719 1.58963 65.075005
-2.4030011 1.587798 65
-2.25545 1.584134 64.850006
-2.108556 1.580469 64.700005
-1.963838 1.578027 64.600006
-1.8209701 1.576805 64.550003
-1.679621 1.576805 64.550003
-1.537676 1.576195 64.525002
-1.395841 1.5755841 64.500008
-1.253143 1.573752 64.425003
-1.10991 1.570698 64.300003
-0.96684802 1.567034 64.150009
-0.82508701 1.564592 64.050003
-0.68429899 1.56337 64.000008
-0.54415399 1.56337 64.000008
-0.40416801 1.5639811 64.025002
-0.264175 1.565202 64.075005
-0.123963 1.566424 64.125
0.016468 1.567645 64.175003
0.15711799 1.568866 64.224998
0.29787099 1.569477 64.250008
0.43873301 1.570088 64.275002
0.57947999 1.570088 64.275002
0.71994698 1.569477 64.250008
0.86030298 1.568866 64.224998
1.000551 1.568256 64.200005
1.140245 1.567034 64.150009
1.27922 1.565202 64.075005
1.417313 1.56276 63.974998
1.554968 1.560317 63.875
1.691522 1.557263 63.750004
1.828247 1.5548199 63.650002
1.964534 1.5523781 63.550003
2.1003821 1.549935 63.450005
2.2375579 1.548714 63.400002
2.3745141 1.547492 63.350002
2.512244 1.546882 63.325005
2.649863 1.546271 63.300003
2.787374 1.54566 63.275002
2.92593 1.54566 63.275002
3.0656979 1.546271 63.300003
3.204309 1.546271 63.300003
3.342921 1.546271 63.300003
3.4801581 1.54566 63.275002
3.615855 1.544439 63.225002
3.751333 1.5432169 63.175003
3.8835139 1.5407749 63.075001
4.0152569 1.538332 62.975002
4.1449132 1.535278 62.850006
4.2723179 1.5316139 62.700005
4.3990669 1.52795 62.550003
4.5269718 1.524897 62.425007
4.6580639 1.523065 62.350006
4.79075 1.521843 62.300003
4.9271722 1.521843 62.300003
5.0676579 1.523065 62.350006
5.2104492 1.524897 62.425007
5.357852 1.52795 62.550003
5.5101938 1.532225 62.725002
5.6633029 1.5365 62.900002
5.8102622 1.5389431 63.000004
5.9600182 1.541996 63.125004
6.1054921 1.543828 63.200005
6.2512941 1.54566 63.275002
6.392375 1.546271 63.300003
6.5309868 1.546271 63.300003
6.666965 1.54566 63.275002
6.8001428 1.544439 63.225002
6.933104 1.5432169 63.175003
7.0630469 1.5413851 63.100006
7.1955142 1.540164 63.050003
7.3335781 1.540164 63.050003
7.468679 1.539553 63.025005
7.606689 1.539553 63.025005
7.744698 1.539553 63.025005
7.8858342 1.540164 63.050003
8.0238981 1.540164 63.050003
8.1619635 1.540164 63.050003
8.3033171 1.5407749 63.075001
8.4414368 1.5407749 63.075001
8.5829554 1.5413851 63.100006
8.7280407 1.5426069 63.150002
8.8698339 1.5432169 63.175003
9.0153008 1.544439 63.225002
9.164607 1.546271 63.300003
9.3215904 1.549324 63.425003
9.4828491 1.552989 63.575005
9.6409817 1.556042 63.700001
9.7958231 1.558485 63.800003
9.9472094 1.560317 63.875
10.094975 1.561538 63.925003
10.234956 1.561538 63.925003
10.378993 1.562149 63.950001
10.519029 1.562149 63.950001
10.66323 1.56276 63.974998
10.807542 1.56337 64.000008
11.016109 1.573141 64.400009
11.183116 1.576805 64.550003
-4.6305189 1.765262 66.325005
-4.4785209 1.762601 66.225006
-4.2713389 1.737316 65.275002
-4.126822 1.7366509 65.25
-3.9808879 1.73532 65.200005
-3.8366439 1.734655 65.175003
-3.691092 1.7333241 65.125
-3.548485 1.7333241 65.125
-3.4058771 1.7333241 65.125
-3.2645221 1.733989 65.150002
-3.1230569 1.734655 65.175003
-2.98034 1.734655 65.175003
-2.836534 1.733989 65.150002
-2.692837 1.7333241 65.125
-2.5472929 1.731328 65.050003
-2.4011519 1.7286659 64.950005
-2.25458 1.7253391 64.825005
-2.108556 1.722012 64.700005
-1.963838 1.7193511 64.600006
-1.820264 1.717355 64.525002
-1.6783201 1.716689 64.500008
-1.535889 1.715358 64.450005
-1.393677 1.714028 64.400009
-1.2511981 1.712032 64.325005
-1.107753 1.708039 64.175003
-0.96534097 1.704712 64.050003
-0.824121 1.702716 63.974998
-0.68349701 1.701385 63.925003
-0.54330403 1.70072 63.900005
-0.40353701 1.701385 63.925003
-0.26376301 1.702716 63.974998
-0.123818 1.704712 64.050003
0.016449001 1.706043 64.100006
0.156996 1.708039 64.175003
0.29763901 1.7087049 64.200005
0.43839201 1.70937 64.224998
0.57902902 1.70937 64.224998
0.719666 1.70937 64.224998
0.85996902 1.7087049 64.200005
1.0001611 1.708039 64.175003
1.139356 1.706043 64.100006
1.278721 1.704712 64.050003
1.416759 1.702051 63.950001
1.55436 1.699389 63.850002
1.691522 1.696728 63.750004
1.827529 1.693401 63.625
1.963761 1.690739 63.525002
2.1003821 1.688743 63.450005
2.236676 1.686747 63.375004
2.3735771 1.685416 63.325005
2.5102601 1.684085 63.275002
2.6477699 1.6834199 63.250004
2.786272 1.6834199 63.250004
2.9247739 1.6834199 63.250004
3.0632761 1.6834199 63.250004
3.2017789 1.6834199 63.250004
3.340281 1.6834199 63.250004
3.4774079 1.682755 63.225002
3.6144249 1.682089 63.200005
3.748364 1.6800931 63.125004
3.8804359 1.6774319 63.025005
4.0120692 1.67477 62.925003
4.1416159 1.671443 62.800003
4.2706151 1.668116 62.675007
4.400825 1.665455 62.575001
4.5305982 1.662793 62.475002
4.661799 1.660797 62.400002
4.7945948 1.659466 62.350006
4.9311271 1.659466 62.350006
5.0696902 1.6601321 62.375004
5.2125359 1.662128 62.450005
5.357852 1.664789 62.550003
5.507998 1.668782 62.700005
5.6588011 1.672774 62.850006
5.8079562 1.676101 62.975002
5.9576569 1.679428 63.100006
6.103076 1.681424 63.175003
6.2488251 1.6834199 63.250004
6.392375 1.684751 63.300003
6.5309868 1.684751 63.300003
6.66433 1.6834199 63.250004
6.7974539 1.682089 63.200005
6.9248729 1.679428 63.100006
7.0546522 1.6774319 63.025005
7.186954 1.676101 62.975002
7.3248539 1.676101 62.975002
7.4627538 1.676101 62.975002
7.6006541 1.676101 62.975002
7.7416258 1.676766 63.000004
7.879581 1.676766 63.000004
8.0175352 1.676766 63.000004
8.1554909 1.676766 63.000004
8.2934446 1.676766 63.000004
8.4313993 1.676766 63.000004
8.5727539 1.6774319 63.025005
8.71422 1.678097 63.050003
8.855794 1.678762 63.075001
9.0010424 1.6800931 63.125004
9.1501284 1.682089 63.200005
9.3032179 1.684751 63.300003
9.4716635 1.690074 63.500004
9.6409817 1.695397 63.700001
9.8035002 1.699389 63.850002
9.9549961 1.701385 63.925003
10.10682 1.703382 64.000008
10.250967 1.704047 64.025002
10.391166 1.704047 64.025002
10.535477 1.704712 64.050003
10.679898 1.7053781 64.075005
10.841314 1.7087049 64.200005
11.033215 1.716689 64.500008
11.187448 1.718685 64.575005
-4.9525232 1.922601 66.75
-4.7721539 1.90892 66.275002
-4.6235371 1.90748 66.225006
-4.4548521 1.8973989 65.875008
-4.2680678 1.878677 65.225006
-4.1220779 1.877237 65.175003
-3.9778349 1.8765171 65.150002
-3.8307569 1.874356 65.075005
-3.685425 1.872916 65.025002
-3.5416739 1.872196 65
-3.3980319 1.8714761 64.975006
-3.259511 1.873636 65.050003
-3.120661 1.875796 65.125
-2.9780531 1.875796 65.125
-2.834357 1.8750761 65.100006
-2.6897371 1.873636 65.050003
-2.5453351 1.872196 65
-2.39838 1.868596 64.875
-2.252841 1.865715 64.775002
-2.106926 1.862115 64.650002
-1.963078 1.859955 64.575005
-1.819559 1.857795 64.500008
-1.676368 1.855634 64.425003
-1.534102 1.854194 64.375
-1.391513 1.852034 64.300003
-1.248767 1.849154 64.200005
-1.1064579 1.8462729 64.100006
-0.96421099 1.8426729 63.974998
-0.82315499 1.840513 63.900005
-0.68269497 1.8390729 63.850002
-0.54287899 1.8390729 63.850002
-0.403063 1.8390729 63.850002
-0.26335001 1.839793 63.875
-0.123576 1.841233 63.925003
0.016423 1.843393 64.000008
0.156812 1.8462729 64.100006
0.297407 1.8477139 64.150009
0.43805099 1.848433 64.175003
0.57857901 1.848433 64.175003
0.71910602 1.848433 64.175003
0.859299 1.8477139 64.150009
0.99938202 1.846993 64.125
1.138911 1.845553 64.075005
1.277723 1.843393 64.000008
1.416206 1.841233 63.925003
1.55436 1.8390729 63.850002
1.691522 1.836192 63.750004
1.827529 1.832592 63.625
1.963761 1.829712 63.525002
2.099555 1.826831 63.425003
2.2357931 1.824671 63.350002
2.3726399 1.823231 63.300003
2.509268 1.8217911 63.250004
2.646724 1.821071 63.225002
2.78407 1.820351 63.200005
2.922462 1.820351 63.200005
3.0608549 1.820351 63.200005
3.1992481 1.820351 63.200005
3.33764 1.820351 63.200005
3.474658 1.819631 63.175003
3.610136 1.81819 63.125004
3.743911 1.81603 63.050003
3.875818 1.81315 62.950005
4.007287 1.81027 62.850006
4.138319 1.807389 62.750008
4.2689109 1.804509 62.650002
4.400825 1.802349 62.575001
4.5324101 1.8001879 62.5
4.6636682 1.798028 62.425007
4.79844 1.797308 62.400002
4.933104 1.7965879 62.375004
5.071722 1.797308 62.400002
5.2125359 1.798748 62.450005
5.355711 1.800909 62.525005
5.5036049 1.804509 62.650002
5.6542988 1.8088289 62.800003
5.8033438 1.81243 62.925003
5.9505758 1.81531 63.025005
6.0982461 1.81819 63.125004
6.241415 1.819631 63.175003
6.3848019 1.821071 63.225002
6.5232491 1.821071 63.225002
6.6590619 1.820351 63.200005
6.7866998 1.81747 63.100006
6.9138989 1.81459 63.000004
7.043458 1.81243 62.925003
7.1755419 1.81099 62.875004
7.3132229 1.81099 62.875004
7.4509039 1.81099 62.875004
7.5946202 1.81243 62.925003
7.7354822 1.81315 62.950005
7.8733268 1.81315 62.950005
8.0143538 1.81387 62.975002
8.1490173 1.81315 62.950005
8.2868624 1.81315 62.950005
8.4247074 1.81315 62.950005
8.5625534 1.81315 62.950005
8.7003984 1.81315 62.950005
8.841754 1.81387 62.975002
8.986783 1.81531 63.025005
9.1356506 1.81747 63.100006
9.2848482 1.819631 63.175003
9.4418306 1.823231 63.300003
9.6220636 1.831152 63.575005
9.8111773 1.840513 63.900005
9.9666748 1.843393 64.000008
10.118664 1.845553 64.075005
10.266977 1.846993 64.125
10.411453 1.8477139 64.150009
10.556039 1.848433 64.175003
10.704899 1.849874 64.224998
10.879311 1.855634 64.425003
11.041767 1.859235 64.550003
11.19611 1.861395 64.625
-7.2775278 2.064755 66.625008
-7.1316361 2.064755 66.625008
-6.985744 2.064755 66.625008
-6.8398509 2.064755 66.625008
-6.6914458 2.0639801 66.599998
-5.2153902 2.057008 66.375008
-4.9191351 2.054683 66.300003
-4.7667542 2.051584 66.200005
-4.6043382 2.0438361 65.949997
-4.415967 2.0236919 65.300003
-4.2664318 2.0205929 65.200005
-4.1204972 2.0190439 65.150002
-3.9732561 2.0167191 65.075005
-3.8263431 2.014395 65
-3.6797571 2.0120709 64.925003
-3.5335009 2.009747 64.850006
-3.386266 2.0066481 64.75
-3.238215 2.002774 64.625
-3.11587 2.0151701 65.025002
-2.9769101 2.017494 65.100006
-2.8332689 2.0167191 65.075005
-2.6887031 2.0151701 65.025002
-2.5433769 2.012846 64.950005
-2.3965311 2.0089719 64.825005
-2.2493629 2.004323 64.675003
-2.1044819 2.001224 64.575005
-1.960798 1.9989001 64.500008
-1.817443 1.996575 64.425003
-1.674417 1.994251 64.350006
-1.531719 1.991927 64.275002
-1.389349 1.989603 64.200005
-1.246821 1.986504 64.100006
-1.104732 1.983405 64.000008
-0.96345699 1.9810801 63.925003
-0.82251102 1.978756 63.850002
-0.68216002 1.977206 63.800003
-0.542454 1.977206 63.800003
-0.40259001 1.976431 63.775002
-0.26304099 1.977206 63.800003
-0.123383 1.977981 63.825005
0.016391 1.979531 63.875
0.156506 1.98263 63.974998
0.29706001 1.985729 64.075005
0.43753901 1.986504 64.100006
0.57790202 1.986504 64.100006
0.71826601 1.986504 64.100006
0.85829401 1.985729 64.075005
0.99821299 1.984954 64.050003
1.137578 1.983405 64.000008
1.276724 1.981855 63.950001
1.415652 1.980305 63.900005
1.553751 1.977981 63.825005
1.690859 1.974882 63.725002
1.827529 1.971783 63.625
1.963761 1.968684 63.525002
2.099555 1.965585 63.425003
2.2357931 1.963261 63.350002
2.3717029 1.960936 63.275002
2.508276 1.9593869 63.225002
2.6446309 1.957837 63.175003
2.781867 1.957062 63.150002
2.92015 1.957062 63.150002
3.0584331 1.957062 63.150002
3.1967161 1.957062 63.150002
3.333679 1.956288 63.125004
3.4705329 1.955513 63.100006
3.6058469 1.953963 63.050003
3.737973 1.950864 62.950005
3.8696611 1.947765 62.850006
4.0025048 1.945441 62.775005
