ply
format ascii 1.0
comment PCL generated
element vertex 1586
property float x
property float y
property float z
element face 0
element camera 0
property float view_px
property float view_py
property float view_pz
property float x_axisx
property float x_axisy
property float x_axisz
property float y_axisx
property float y_axisy
property float y_axisz
property float z_axisx
property float z_axisy
property float z_axisz
property float focal
property float scalex
property float scaley
property float centerx
property float centery
property int viewportx
property int viewporty
property float k1
property float k2
end_header
-5.7025108 7.6433549 66.975006
-5.5475569 7.6319432 66.875008
-5.3930411 7.6205311 66.775009
-5.2369981 7.6062651 66.650002
-5.0795932 7.5891471 66.5
-4.9228439 7.5720282 66.349998
-4.7685542 7.5577631 66.225006
-4.6165562 7.54635 66.125008
-4.4666858 7.5377908 66.050003
-4.3187809 7.5320849 66
-4.1726761 7.529232 65.975006
-4.02668 7.5263782 65.949997
-3.882266 7.5263782 65.949997
-3.7378509 7.5263782 65.949997
-3.594799 7.529232 65.975006
-3.454252 7.5377908 66.050003
-3.3133769 7.54635 66.125008
-3.172173 7.5549102 66.200005
-3.0317841 7.5663218 66.300003
-2.8909571 7.577734 66.400002
-2.750726 7.592 66.525002
-2.608968 7.6034122 66.625008
-2.466773 7.6148238 66.725006
-2.3241391 7.626236 66.825005
-2.180253 7.6347961 66.900002
-2.036798 7.6462069 67
-1.900663 7.689003 67.375008
-1.766789 7.7489181 67.900002
-1.619892 7.7574768 67.975006
-1.472667 7.766036 68.050003
-1.325599 7.7774482 68.150002
-7.148263 7.9294472 68.175003
-6.9964099 7.926538 68.150002
-6.847178 7.926538 68.150002
-6.6930332 7.920723 68.100006
-6.5367041 7.9120002 68.025002
-6.3196659 7.8276749 67.300003
-6.1631241 7.8160439 67.200005
-6.0114961 7.8102279 67.150002
-5.857903 7.8015051 67.075005
-5.7025108 7.7898741 66.975006
-5.5496311 7.7811508 66.900002
-5.3930411 7.766613 66.775009
-5.2389622 7.754981 66.675003
-5.0795932 7.7346268 66.5
-4.9191351 7.7113652 66.300003
-4.7649531 7.696826 66.175003
-4.61481 7.6881032 66.099998
-4.4649949 7.679379 66.025002
-4.3187809 7.6764722 66
-4.1710939 7.6706562 65.949997
-4.02668 7.6706562 65.949997
-3.882266 7.6706562 65.949997
-3.7378509 7.6706562 65.949997
-3.594799 7.673564 65.975006
-3.452945 7.679379 66.025002
-3.312124 7.6881032 66.099998
-3.170975 7.696826 66.175003
-3.0306411 7.708457 66.275002
-2.889869 7.720088 66.375008
-2.749692 7.7346268 66.5
-2.6079891 7.7462578 66.599998
-2.466773 7.760797 66.725006
-2.3241391 7.772428 66.825005
-2.1818831 7.7869668 66.950005
-2.0383179 7.7985969 67.050003
-1.898548 7.8276749 67.300003
-1.763537 7.8829222 67.775002
-1.6181051 7.8974609 67.900002
-1.4710439 7.9061842 67.975006
-1.323167 7.9120002 68.025002
-7.1508851 8.0815535 68.200005
-6.9989772 8.0785913 68.175003
-6.847178 8.0756283 68.150002
-6.6930332 8.0697041 68.100006
-6.5391049 8.0637789 68.050003
-6.38305 8.0548916 67.975006
-6.1722951 7.974905 67.300003
-6.0114961 7.95713 67.150002
-5.857903 7.9482441 67.075005
-5.704639 7.9393559 67
-5.5517039 7.930469 66.925003
-5.397079 7.9186192 66.825005
-5.2428908 7.9067688 66.725006
-5.081502 7.88307 66.525002
-4.9172802 7.8534451 66.275002
-4.7649531 7.8415952 66.175003
-4.61481 7.8327079 66.099998
-4.4666858 7.8267841 66.050003
-4.3187809 7.820858 66
-4.1726761 7.8178959 65.975006
-4.0282068 7.8178959 65.975006
-3.883738 7.8178959 65.975006
-3.7392681 7.8178959 65.975006
-3.5961609 7.820858 66
-3.454252 7.8267841 66.050003
-3.312124 7.8327079 66.099998
-3.170975 7.8415952 66.175003
-3.0294981 7.8504829 66.25
-2.889869 7.8652949 66.375008
-2.749692 7.8801069 66.5
-2.6079891 7.8919568 66.599998
-2.466773 7.9067688 66.725006
-2.3250091 7.9215808 66.849998
-2.1826971 7.9363928 66.975006
-2.0398381 7.9512062 67.099998
-1.897137 7.9689808 67.25
-1.758332 8.0074921 67.575005
-1.6157219 8.0341549 67.800003
-1.46942 8.0460043 67.900002
-1.3221951 8.0548916 67.975006
-1.174209 8.0608168 68.025002
-7.1508851 8.2307539 68.200005
-6.9989772 8.2277374 68.175003
-6.847178 8.224719 68.150002
-6.6930332 8.2186852 68.100006
-6.5391049 8.2126503 68.050003
-6.385397 8.2066164 68
-6.2273231 8.1945477 67.900002
-6.022686 8.1191196 67.275009
-5.860086 8.0979996 67.099998
-5.706769 8.0889482 67.025009
-5.5558519 8.0829134 66.975006
-5.4011168 8.0708456 66.875008
-5.2487841 8.0617943 66.800003
-5.0910511 8.0436907 66.650002
-4.9228439 8.0074854 66.349998
-4.7685542 7.9924002 66.225006
-4.6183009 7.9833479 66.150002
-4.470068 7.977314 66.099998
-4.322053 7.9712801 66.050003
-4.175838 7.9682631 66.025002
-4.0312591 7.9682631 66.025002
-3.8852091 7.9652462 66
-3.7421019 7.9682631 66.025002
-3.597523 7.9682631 66.025002
-3.454252 7.9712801 66.050003
-3.312124 7.977314 66.099998
-3.170975 7.9863648 66.175003
-3.0306411 7.9984341 66.275002
-2.889869 8.0105028 66.375008
-2.749692 8.025588 66.5
-2.608968 8.0406742 66.625008
-2.4676969 8.0557594 66.75
-2.3258779 8.0708456 66.875008
-2.1843269 8.0889482 67.025009
-2.0405979 8.101017 67.125008
-1.897842 8.1191196 67.275009
-1.755731 8.1432562 67.475006
-1.6133389 8.1704111 67.700005
-1.467797 8.1854963 67.825005
-1.321709 8.2005835 67.950005
-1.1737781 8.2066164 68
-1.025628 8.2126503 68.050003
-7.1508851 8.3799534 68.200005
-6.9989772 8.3768816 68.175003
-6.847178 8.3738098 68.150002
-6.6930332 8.3676662 68.100006
-6.5391049 8.3615217 68.050003
-6.38305 8.3523064 67.975006
-6.2296162 8.3461637 67.925003
-6.0719242 8.3338757 67.825005
-5.8710041 8.2601519 67.225006
-5.7131538 8.244792 67.099998
-5.5599999 8.2355776 67.025009
-5.4071741 8.2263622 66.950005
-5.2546768 8.2171459 66.875008
-5.1005988 8.2048597 66.775009
-4.9339738 8.1710691 66.5
-4.7739539 8.1464949 66.300003
-4.6235371 8.1372786 66.225006
-4.4751401 8.131134 66.175003
-4.326961 8.1249914 66.125008
-4.1805811 8.1219196 66.099998
-4.0343118 8.1188478 66.075005
-3.8896241 8.1188478 66.075005
-3.744936 8.1188478 66.075005
-3.6002481 8.1188478 66.075005
-3.456867 8.1219196 66.099998
-3.3133769 8.1249914 66.125008
-3.172173 8.1342068 66.200005
-3.0306411 8.1434221 66.275002
-2.8909571 8.1587811 66.400002
-2.750726 8.17414 66.525002
-2.609947 8.1894999 66.650002
-2.4695449 8.2079306 66.800003
-2.3276169 8.2232904 66.925003
-2.185142 8.2386494 67.050003
-2.0421181 8.2540083 67.175003
-1.898548 8.2693672 67.300003
-1.75508 8.2877989 67.450005
-1.611551 8.3093014 67.625008
-1.4672559 8.3308039 67.800003
-1.321709 8.3492355 67.950005
-1.1737781 8.3553782 68
-1.026005 8.3645945 68.075005
-0.894328 8.5304728 69.425003
-7.1535058 8.532279 68.225006
-7.001544 8.5291529 68.200005
-6.847178 8.5228996 68.150002
-6.6905751 8.5135202 68.075005
-6.5367041 8.507267 68.025002
-6.38305 8.5010138 67.975006
-6.2296162 8.4947615 67.925003
-6.0763998 8.4885082 67.875
-5.9212198 8.4791288 67.800003
-5.728055 8.4134722 67.275009
-5.568295 8.3947124 67.125008
-5.4152508 8.3853331 67.050003
-5.2644992 8.3790798 67
-5.110147 8.3665733 66.900002
-4.9506679 8.3446884 66.725006
-4.7865548 8.3134222 66.475006
-4.6305189 8.2946634 66.325005
-4.4819021 8.2884102 66.275002
-4.3335042 8.2821579 66.225006
-4.1869059 8.2790318 66.200005
-4.0404181 8.2759047 66.175003
-3.8940389 8.2727795 66.150002
-3.7477701 8.2696524 66.125008
-3.602972 8.2696524 66.125008
-3.459482 8.2727795 66.150002
-3.315882 8.2759047 66.175003
-3.1745689 8.285284 66.25
-3.032928 8.2946634 66.325005
-2.892045 8.307169 66.425003
-2.75176 8.3228025 66.550003
-2.6119051 8.3415623 66.700005
-2.47047 8.3571939 66.825005
-2.3284869 8.3728266 66.950005
-2.185956 8.3884592 67.075005
-2.0428779 8.4040928 67.200005
-1.899253 8.4197245 67.325005
-1.75508 8.4353571 67.450005
-1.610956 8.4541168 67.600006
-1.4672559 8.4791288 67.800003
-1.3221951 8.5010138 67.975006
-1.174641 8.5103941 68.050003
-1.026758 8.5197725 68.125
-0.89400601 8.679225 69.400002
-7.156127 8.6847153 68.25
-6.9989772 8.6751719 68.175003
-6.847178 8.6719904 68.150002
-6.6905751 8.662447 68.075005
-6.5367041 8.6560841 68.025002
-6.38305 8.6497221 67.975006
-6.2296162 8.6433601 67.925003
-6.0786381 8.6401787 67.900002
-5.9255872 8.6338158 67.850006
-5.768497 8.6210909 67.75
-5.5869598 8.5701923 67.350006
-5.4273648 8.5511045 67.200005
-5.2743211 8.5415611 67.125008
-5.1196952 8.5288363 67.025009
-4.965507 8.5161104 66.925003
-4.8027558 8.4874802 66.700005
-4.6444821 8.4652109 66.525002
-4.4920449 8.452486 66.425003
-4.3433199 8.4461241 66.375008
-4.1948118 8.4397621 66.325005
-4.046524 8.4333992 66.275002
-3.8999259 8.4302177 66.25
-3.753438 8.4270372 66.225006
-3.6084211 8.4270372 66.225006
-3.4634039 8.4270372 66.225006
-3.3196399 8.4302177 66.25
-3.176965 8.4365807 66.300003
-3.0352139 8.4461241 66.375008
-2.894222 8.458849 66.475006
-2.7548611 8.4779367 66.625008
-2.613863 8.4938421 66.75
-2.4723179 8.5097485 66.875008
-2.330225 8.5256548 67
-2.1875861 8.5415611 67.125008
-2.043638 8.554286 67.225006
-1.899958 8.5701923 67.350006
-1.755731 8.5860977 67.475006
-1.611551 8.6051865 67.625008
-1.467797 8.6306343 67.825005
-1.3236541 8.6592665 68.050003
-1.175935 8.6688089 68.125
-1.027889 8.6783524 68.200005
-0.89368403 8.8278694 69.375
-7.1613698 8.8404951 68.300003
-6.9989772 8.824316 68.175003
-6.844666 8.8178444 68.125
-6.6905751 8.8113728 68.075005
-6.5343008 8.8016644 68
-6.38305 8.7984285 67.975006
-6.2319078 8.7951927 67.950005
-6.0808759 8.7919569 67.925003
-5.9277701 8.7854853 67.875
-5.7748828 8.7790127 67.825005
-5.6139202 8.7595978 67.675003
-5.4455371 8.7272387 67.425003
-5.2861071 8.7078238 67.275009
-5.1311522 8.6948795 67.175003
-4.9766359 8.6819363 67.075005
-4.8207579 8.6657572 66.950005
-4.663681 8.6463413 66.800003
-4.5089521 8.6301613 66.675003
-4.3564072 8.617218 66.575005
-4.2058802 8.6075106 66.5
-4.0556822 8.5978022 66.425003
-3.907284 8.5913305 66.375008
-3.7605219 8.5880947 66.349998
-3.613869 8.5848589 66.325005
-3.4686339 8.5848589 66.325005
-3.324651 8.5880947 66.349998
-3.181757 8.5945663 66.400002
-3.0397871 8.6042747 66.475006
-2.898576 8.617218 66.575005
-2.757962 8.6333981 66.700005
-2.6168001 8.6495771 66.825005
-2.475091 8.6657572 66.950005
-2.331965 8.6787004 67.050003
-2.1892149 8.6948795 67.175003
-2.045918 8.7110596 67.300003
-1.901369 8.7240028 67.400002
-1.757032 8.7401829 67.525009
-1.613935 8.7660704 67.725006
-1.472126 8.8049011 68.025002
-1.326085 8.824316 68.175003
-1.178093 8.8340235 68.25
-1.0293961 8.8404951 68.300003
-0.89239502 8.9666958 69.275002
-7.2137961 9.0557261 68.800003
-6.9989772 8.9734621 68.175003
-6.844666 8.9668798 68.125
-6.6905751 8.9602985 68.075005
-6.5343008 8.9504271 68
-6.38305 8.9471359 67.975006
-6.2319078 8.9438457 67.950005
-6.0808759 8.9405556 67.925003
-5.9299541 8.9372654 67.900002
-5.7748828 8.927393 67.825005
-5.620142 8.9175215 67.75
-5.4576521 8.8944864 67.575005
-5.297893 8.8747435 67.425003
-5.1406999 8.8582907 67.300003
-4.9859099 8.8451281 67.200005
-4.8315582 8.8319654 67.099998
-4.675899 8.8155127 66.975006
-4.5207868 8.7990599 66.849998
-4.3678579 8.7858973 66.75
-4.216948 8.7760258 66.675003
-4.067894 8.7694445 66.625008
-3.9190581 8.7628632 66.575005
-3.7704401 8.7562819 66.525002
-3.623405 8.7529917 66.5
-3.4764791 8.7497005 66.475006
-3.330915 8.7497005 66.475006
-3.186548 8.7529917 66.5
-3.044359 8.7628632 66.575005
-2.90293 8.7760258 66.675003
-2.7620969 8.7924786 66.800003
-2.6197369 8.8056412 66.900002
-2.477864 8.822094 67.025009
-2.334573 8.8352566 67.125008
-2.191659 8.8517094 67.25
-2.048198 8.8681622 67.375008
-1.9041899 8.8846149 67.5
-1.761585 8.9109402 67.700005
-1.619297 8.9438457 67.950005
-1.474831 8.97017 68.150002
-1.327544 8.9833326 68.25
-1.179388 8.9932051 68.325005
-1.030903 9.0030766 68.400002
-0.89078498 9.1017942 69.150002
-7.258358 9.2631083 69.224998
-6.9989772 9.1226072 68.175003
-6.844666 9.1159163 68.125
-6.6905751 9.1092253 68.075005
-6.5367041 9.1025352 68.025002
-6.385397 9.0991888 68
-6.234201 9.0958443 67.975006
-6.0831141 9.0924997 67.950005
-5.9299541 9.0858088 67.900002
-5.7770119 9.0791178 67.850006
-5.620142 9.0657368 67.75
-5.4637089 9.0523558 67.650002
-5.3057508 9.0356302 67.525009
-5.1483388 9.0189028 67.400002
-4.99333 9.0055218 67.300003
-4.8387589 8.9921408 67.200005
-4.6846261 8.9787588 67.099998
-4.530931 8.9653778 67
-4.3776741 8.9519968 66.900002
-4.2264352 8.9419613 66.825005
-4.0770521 8.9352713 66.775009
-3.9278879 8.9285803 66.725006
-3.780359 8.9252357 66.700005
-3.6329401 8.9218893 66.675003
-3.486938 8.9218893 66.675003
-3.3409359 8.9218893 66.675003
-3.1949339 8.9218893 66.675003
-3.051219 8.9285803 66.725006
-2.909461 8.9419613 66.825005
-2.7672651 8.9553423 66.925003
-2.6236529 8.9653778 67
-2.4806359 8.9787588 67.099998
-2.3380511 8.9954863 67.225006
-2.1957331 9.0155582 67.375008
-2.052758 9.0356302 67.525009
-1.909832 9.0590458 67.700005
-1.766139 9.0824633 67.875
-1.62168 9.1058807 68.050003
-1.475913 9.1259527 68.200005
-1.328516 9.1393328 68.300003
-1.1806819 9.1527138 68.400002
-1.031657 9.1594048 68.450005
-0.88466603 9.1895123 68.675003
-7.2793279 9.4417505 69.425003
-6.9964099 9.2683506 68.150002
-6.844666 9.2649508 68.125
-6.6930332 9.2615519 68.100006
-6.5391049 9.2547512 68.050003
-6.385397 9.2479525 68
-6.234201 9.2445517 67.975006
-6.0831141 9.2411518 67.950005
-5.9299541 9.2343512 67.900002
-5.7770119 9.2275515 67.850006
-5.6222162 9.2173519 67.775002
-5.4657278 9.2037516 67.675003
-5.309679 9.1901512 67.575005
-5.154068 9.1765518 67.475006
-4.9988952 9.1629524 67.375008
-4.8459601 9.1527519 67.300003
-4.691607 9.1391516 67.200005
-4.537693 9.1255512 67.099998
-4.3858528 9.1153526 67.025009
-4.2343411 9.1051531 66.950005
-4.083158 9.0949516 66.875008
-3.933774 9.0881519 66.825005
-3.7874429 9.0881519 66.825005
-3.641113 9.0881519 66.825005
-3.4960899 9.0915518 66.849998
-3.3509581 9.0949516 66.875008
-3.206913 9.1017513 66.925003
-3.0626509 9.108552 66.975006
-2.9170799 9.1119518 67
-2.772434 9.1187515 67.050003
-2.627569 9.1255512 67.099998
-2.484333 9.1391516 67.200005
-2.3415289 9.1561518 67.325005
-2.198992 9.1765518 67.475006
-2.0565579 9.2003517 67.650002
-1.914063 9.2275515 67.850006
-1.7700419 9.2513514 68.025002
-1.6240619 9.2683506 68.150002
-1.476995 9.28195 68.25
-1.329489 9.2955513 68.350006
-1.181114 9.3057518 68.425003
-1.03241 9.3159513 68.500008
-0.88337803 9.3261499 68.574997
-7.4688172 9.6419964 69.775002
-7.274085 9.5867205 69.375
-6.9964099 9.4174414 68.150002
-6.844666 9.4139872 68.125
-6.6930332 9.410533 68.100006
-6.5391049 9.4036226 68.050003
-6.3877449 9.4001684 68.025002
-6.234201 9.393259 67.975006
-6.0831141 9.3898039 67.950005
-5.9299541 9.3828955 67.900002
-5.7770119 9.3759861 67.850006
-5.6222162 9.3656216 67.775002
-5.4677482 9.355258 67.700005
-5.3136082 9.3448935 67.625008
-5.1597972 9.3345299 67.550003
-5.0044589 9.3207111 67.450005
-4.8513598 9.3103466 67.375008
-4.6985888 9.299983 67.300003
-4.544456 9.2861643 67.200005
-4.3907599 9.2723455 67.099998
-4.2390838 9.261982 67.025009
-4.089263 9.2550726 66.975006
-3.939661 9.2481632 66.925003
-3.7931111 9.2481632 66.925003
-3.6479239 9.2516174 66.950005
-3.5026269 9.2550726 66.975006
-3.358474 9.261982 67.025009
-3.214102 9.2688913 67.075005
-3.06951 9.2758007 67.125008
-2.9236109 9.2792549 67.150002
-2.777602 9.2827091 67.175003
-2.6324639 9.2896175 67.225006
-2.4898789 9.3068924 67.350006
-2.347615 9.3276215 67.5
-2.2055099 9.3518028 67.675003
-2.0611179 9.3690767 67.800003
-1.918295 9.3967133 68
-1.773294 9.4174414 68.150002
-1.626446 9.4312601 68.25
-1.478618 9.4416246 68.325005
-1.330462 9.4519882 68.400002
-1.181977 9.4623518 68.474998
-1.032787 9.4692621 68.525002
-0.88370001 9.4796267 68.600006
-0.735888 9.5107174 68.824997
-0.59495598 9.6696329 69.974998
-7.5970292 9.7630568 69.550003
-7.4179721 9.7279634 69.300003
-7.266221 9.7279634 69.300003
-6.9989772 9.5700417 68.175003
-6.847178 9.5665321 68.150002
-6.6954889 9.5630236 68.125
-6.5415082 9.5560045 68.075005
-6.3877449 9.5489864 68.025002
-6.234201 9.5419664 67.975006
-6.0808759 9.5349483 67.925003
-5.9277701 9.5279303 67.875
-5.7748828 9.5209103 67.825005
-5.6222162 9.5138922 67.775002
-5.4677482 9.5033636 67.700005
-5.3155718 9.4963465 67.650002
-5.1636162 9.4893255 67.600006
-5.0100241 9.4787989 67.525009
-4.856761 9.4682713 67.450005
-4.703825 9.4577427 67.375008
-4.5495281 9.4437046 67.275009
-4.395668 9.4296675 67.175003
-4.2438269 9.4191389 67.099998
-4.0923162 9.4086123 67.025009
-3.9440761 9.4051018 67
-3.7973621 9.4051018 67
-3.6520109 9.4086123 67.025009
-3.5078571 9.4156294 67.075005
-3.364737 9.426158 67.150002
-3.2200911 9.433177 67.200005
-3.0740831 9.4366875 67.225006
-2.9279649 9.4401951 67.25
-2.7838049 9.4507236 67.325005
-2.654001 9.5138922 67.775002
-2.525923 9.5910978 68.325005
-2.3832641 9.619173 68.525002
-2.234026 9.6226826 68.550003
-2.083158 9.619173 68.525002
-1.928169 9.5946083 68.350006
-1.778499 9.5946083 68.350006
-1.628829 9.5946083 68.350006
-1.4802409 9.6016254 68.400002
-1.330948 9.6051359 68.425003
-1.181977 9.612154 68.474998
-1.033164 9.6226826 68.550003
-0.88370001 9.6297007 68.600006
-0.73455203 9.6437387 68.700005
-0.58942997 9.731473 69.325005
-6.9989772 9.7191868 68.175003
-6.847178 9.7156219 68.150002
-6.6930332 9.7084951 68.100006
-6.5391049 9.7013664 68.050003
-6.385397 9.6942377 68
-6.2319078 9.6871099 67.950005
-6.0763998 9.6764174 67.875
-5.9234028 9.6692886 67.825005
-5.7706261 9.6621618 67.775002
-5.6180682 9.6550331 67.725006
-5.4677482 9.6514692 67.700005
-5.3175359 9.6479053 67.675003
-5.1655259 9.6407776 67.625008
-5.0137339 9.6336479 67.575005
-4.8603611 9.6229563 67.5
-4.7073159 9.6122646 67.425003
-4.5529089 9.5980082 67.325005
-4.3989401 9.5837517 67.225006
-4.245409 9.5694962 67.125008
-4.0953689 9.5623684 67.075005
-3.9470191 9.5588036 67.050003
-3.8001959 9.5588036 67.050003
-3.6560969 9.5659313 67.099998
-3.5117791 9.5730591 67.150002
-3.368495 9.5837517 67.225006
-3.223685 9.5908804 67.275009
-3.078655 9.5980082 67.325005
-2.9355841 9.6122646 67.425003
-2.8210189 9.7263145 68.225006
-2.677496 9.7476988 68.375
-2.5314691 9.7619553 68.474998
-2.3841341 9.7726469 68.550003
-2.2348411 9.7762108 68.574997
-2.0846779 9.7762108 68.574997
-1.93381 9.7726469 68.550003
-1.782402 9.7655191 68.500008
-1.631212 9.7583914 68.450005
-1.481323 9.7583914 68.450005
-1.33192 9.7619553 68.474998
-1.182408 9.7655191 68.500008
-1.03354 9.7762108 68.574997
-0.884022 9.7833405 68.625
-0.73455203 9.7940321 68.700005
-5.7642398 9.7995758 67.700005
-5.6139202 9.7959566 67.675003
-5.4657278 9.7959566 67.675003
-5.3155718 9.7923374 67.650002
-5.1655259 9.7887192 67.625008
-5.0155892 9.7851009 67.600006
-4.8621612 9.7742443 67.525009
-4.7090621 9.7633886 67.450005
-4.5545998 9.7489138 67.350006
-4.4005761 9.7344379 67.25
-4.2485709 9.7235813 67.175003
-4.0968952 9.7127247 67.099998
-3.9484911 9.7091064 67.075005
-3.8016131 9.7091064 67.075005
-3.657459 9.7163448 67.125008
-3.514395 9.7272015 67.200005
-3.3722529 9.7416754 67.300003
-3.228477 9.752532 67.375008
-3.0900879 9.7814817 67.575005
-8.8711958 9.7483435 64.425003
-8.7504473 9.77104 64.575005
-5.647449 2.778918 69.925003
-5.4923649 2.777925 69.900009
-5.3373909 2.776931 69.875
-5.182528 2.775938 69.850006
-5.0277729 2.7749441 69.825005
-5.7922721 2.9276991 69.825005
-5.6413908 2.9287469 69.850006
-5.4884362 2.9287469 69.850006
-5.3335719 2.9276991 69.825005
-5.1769629 2.925602 69.775002
-5.0223732 2.9245541 69.750008
-4.8678918 2.923506 69.724998
-4.7169018 2.9245541 69.750008
-4.5658021 2.925602 69.775002
-5.938786 3.0771451 69.750008
-5.7901969 3.07935 69.800003
-5.6393719 3.0804541 69.825005
-5.484508 3.07935 69.800003
-5.3297529 3.078248 69.775002
-5.1676879 3.0727329 69.650002
-5.0133719 3.07163 69.625
-4.8626552 3.0727329 69.650002
-4.7101388 3.0727329 69.650002
-4.5592589 3.0738361 69.675003
-4.4098492 3.0760419 69.724998
-4.2617478 3.07935 69.800003
-4.113318 3.082659 69.875
-3.9631431 3.0848651 69.925003
-6.0675039 3.217001 69.474998
-5.9217558 3.220474 69.550003
-5.775681 3.223947 69.625
-5.623219 3.223947 69.625
-5.4629002 3.219317 69.525002
-5.303019 3.2146859 69.425003
-5.1491389 3.2135291 69.400002
-4.998971 3.2146859 69.425003
-4.8504381 3.217001 69.474998
-4.7033758 3.220474 69.550003
-4.5559869 3.223947 69.625
-4.4066868 3.2262621 69.675003
-4.2586951 3.2297349 69.750008
-4.110374 3.2332079 69.825005
-3.960309 3.235523 69.875
-3.810024 3.237839 69.925003
-3.6595199 3.240154 69.974998
-6.2017331 3.359292 69.275002
-6.0522208 3.3605039 69.300003
-5.9025989 3.361717 69.325005
-5.7528682 3.3629291 69.350006
-5.6010079 3.3629291 69.350006
-5.447185 3.361717 69.325005
-5.2934699 3.3605039 69.300003
-5.1417198 3.3605039 69.300003
-4.9917712 3.361717 69.325005
-4.841711 3.3629291 69.350006
-4.6949229 3.3665659 69.425003
-4.5478082 3.370203 69.500008
-4.4019442 3.375052 69.600006
-4.2541161 3.3786891 69.675003
-4.1059599 3.3823259 69.750008
-3.956058 3.3847499 69.800003
-3.8072989 3.388387 69.875
-3.6569049 3.3908119 69.925003
-3.5062921 3.3932371 69.974998
-3.3530641 3.3932371 69.974998
-6.1950178 3.5070429 69.200005
-6.045671 3.5083089 69.224998
-5.896214 3.509577 69.250008
-5.7466459 3.510844 69.275002
-5.5949512 3.510844 69.275002
-5.4412918 3.509577 69.250008
-5.2877421 3.5083089 69.224998
-5.1361551 3.5083089 69.224998
-4.98457 3.5083089 69.224998
-4.8364749 3.510844 69.275002
-4.6881609 3.513377 69.325005
-4.5412641 3.517179 69.400002
-4.3956189 3.5222471 69.500008
-4.2480102 3.5260479 69.575005
-4.1000729 3.5298481 69.650002
-3.9503901 3.532382 69.700005
-3.801851 3.5361831 69.775002
-3.652983 3.539984 69.850006
-3.5025339 3.5425191 69.900009
-3.350668 3.543786 69.925003
-3.1975491 3.543786 69.925003
-3.0433421 3.5425191 69.900009
-6.3396721 3.654465 69.125
-6.1883039 3.654465 69.125
-6.0391202 3.655787 69.150002
-5.8898282 3.657109 69.175003
-5.7383509 3.657109 69.175003
-5.586875 3.657109 69.175003
-5.4353991 3.657109 69.175003
-5.2839222 3.657109 69.175003
-5.1324458 3.657109 69.175003
-4.9809699 3.657109 69.175003
-4.8312378 3.6584301 69.200005
-4.6813979 3.6597519 69.224998
-4.5347199 3.663717 69.300003
-4.387713 3.6676819 69.375
-4.2403779 3.6716471 69.450005
-4.0941858 3.676934 69.550003
-3.9447229 3.6795771 69.600006
-3.796402 3.683542 69.675003
-3.647753 3.6875069 69.750008
-3.498776 3.691473 69.825005
-3.347074 3.6927941 69.850006
-3.1952629 3.6941161 69.875
-3.0411651 3.6927941 69.850006
-2.886143 3.69015 69.800003
-6.3327932 3.801559 69.050003
-6.1838279 3.8029361 69.075005
-6.0325708 3.8029361 69.075005
-5.8834419 3.804312 69.100006
-5.7342029 3.8056879 69.125
-5.5828371 3.8056879 69.125
-5.4314699 3.8056879 69.125
-5.2801032 3.8056879 69.125
-5.128736 3.8056879 69.125
-4.9773688 3.8056879 69.125
-4.8260031 3.8056879 69.125
-4.6780171 3.8084409 69.175003
-4.5281758 3.809818 69.200005
-4.3813891 3.813947 69.275002
-4.234272 3.8180759 69.350006
-4.0868282 3.8222051 69.425003
-3.937638 3.8249569 69.474998
-3.784142 3.823581 69.450005
-3.6320641 3.823581 69.450005
-3.4875021 3.83184 69.600006
-3.339886 3.8373449 69.700005
-3.1895471 3.8400979 69.750008
-3.0368111 3.8400979 69.750008
-2.8820081 3.8373449 69.700005
-2.7284031 3.835969 69.675003
-2.5739839 3.833216 69.625
-6.476953 3.9483249 68.974998
-6.3259149 3.9483249 68.974998
-6.177114 3.9497559 69.000008
-6.026021 3.9497559 69.000008
-5.8770561 3.9511869 69.025002
-5.727982 3.9526179 69.050003
-5.5787988 3.9540501 69.075005
-5.4295049 3.9554811 69.100006
-5.278193 3.9554811 69.100006
-5.1268811 3.9554811 69.100006
-4.9737692 3.9540501 69.075005
-4.8225121 3.9540501 69.075005
-4.672945 3.9554811 69.100006
-4.5216331 3.9554811 69.100006
-4.3734822 3.958343 69.150002
-4.2251139 3.961205 69.200005
-4.0765262 3.964067 69.250008
-3.9178009 3.9569111 69.125
-3.758261 3.9483249 68.974998
-3.6098371 3.9511869 69.025002
-3.469964 3.964067 69.250008
-3.3243129 3.9712219 69.375
-3.1781149 3.9783781 69.500008
-3.0281031 3.98124 69.550003
-2.8768401 3.982671 69.575005
-2.7235079 3.98124 69.550003
-2.5712111 3.98124 69.550003
-2.4180441 3.979809 69.525002
-6.4699101 4.0947628 68.900002
-6.319036 4.0947628 68.900002
-6.1704001 4.0962491 68.925003
-6.0194712 4.0962491 68.925003
-5.8706698 4.0977349 68.950005
-5.7217598 4.0992198 68.974998
-5.572742 4.1007071 69.000008
-5.4236131 4.1021919 69.025002
-5.274374 4.1036782 69.050003
-5.1231718 4.1036782 69.050003
-4.9701691 4.1021919 69.025002
-4.817276 4.1007071 69.000008
-4.666183 4.1007071 69.000008
-4.5167251 4.1021919 69.025002
-4.3687391 4.1051641 69.075005
-4.2174821 4.1051641 69.075005
-4.06181 4.1007071 69.000008
-3.888046 4.0769339 68.600006
-3.7364659 4.075448 68.574997
-3.587611 4.0769339 68.600006
-3.4536791 4.0962491 68.925003
-3.314729 4.1111069 69.175003
-3.1678259 4.1170502 69.275002
-3.0193961 4.1215072 69.350006
-2.8696029 4.1244779 69.400002
-2.7186129 4.1259642 69.425003
-2.5675139 4.12745 69.450005
-2.4154351 4.12745 69.450005
-2.2633569 4.12745 69.450005
-6.6111751 4.2393322 68.800003
-6.4605198 4.2393322 68.800003
-6.309865 4.2393322 68.800003
-6.161447 4.2408719 68.824997
-6.0107369 4.2408719 68.824997
-5.8621559 4.242413 68.850006
-5.715539 4.2454939 68.900002
-5.5687032 4.2485752 68.950005
-5.421648 4.2516561 69.000008
-5.2724638 4.2531958 69.025002
-5.1213169 4.2531958 69.025002
-4.968369 4.2516561 69.000008
-4.8137851 4.2485752 68.950005
-4.6628008 4.2485752 68.950005
-4.511817 4.2485752 68.950005
-4.3608332 4.2485752 68.950005
-4.2052698 4.2439542 68.875
-4.0235462 4.2116041 68.350006
-3.869626 4.2069831 68.275002
-3.721482 4.2085228 68.300003
-3.575844 4.2131448 68.375
-3.4323831 4.2208471 68.500008
-3.300354 4.2439542 68.875
-3.1609671 4.2593579 69.125
-3.0128651 4.263979 69.200005
-2.8634009 4.2670598 69.250008
-2.7137179 4.2701411 69.300003
-2.563817 4.273222 69.350006
-2.412827 4.2747631 69.375
-2.2617271 4.2763028 69.400002
-2.110518 4.277843 69.425003
-6.6039681 4.3850589 68.724998
-6.4534769 4.3850589 68.724998
-6.3029861 4.3850589 68.724998
-6.1502571 4.3834639 68.700005
-6.0020041 4.3850589 68.724998
-5.853642 4.3866539 68.750008
-5.707243 4.3898439 68.800003
-5.560627 4.3930349 68.850006
-5.4000401 4.3850589 68.724998
-5.2170849 4.3579421 68.300003
-5.0582509 4.349966 68.175003
-4.9233651 4.3627272 68.375
-4.7945862 4.3818688 68.675003
-4.6475849 4.3850589 68.724998
-4.492187 4.3802729 68.650002
-4.294425 4.3324189 67.900002
-4.145741 4.3324189 67.900002
-4.001471 4.337204 67.975006
-3.8597071 4.345181 68.100006
-3.7146709 4.349966 68.175003
-3.5693071 4.3547511 68.25
-3.4223609 4.3579421 68.300003
-3.2811871 4.3691082 68.474998
-3.1506779 4.396225 68.900002
-3.0074229 4.407392 69.075005
-2.858232 4.4105821 69.125
-2.7098031 4.4153671 69.200005
-2.5601201 4.4185581 69.250008
-2.410218 4.4217482 69.300003
-2.260098 4.4249382 69.350006
-2.1089981 4.4265332 69.375
-6.5943589 4.5288081 68.625
-6.444087 4.5288081 68.625
-6.291522 4.5271578 68.600006
-6.1390662 4.5255079 68.574997
-5.9867201 4.523859 68.550003
-5.8344841 4.5222092 68.525002
-5.671988 4.51231 68.375
-5.4960151 4.4908619 68.050003
-5.3391452 4.484262 67.950005
-5.186532 4.4809618 67.900002
-5.0322819 4.4760132 67.825005
-4.8765621 4.4694142 67.725006
-4.7247701 4.466114 67.675003
-4.5765781 4.466114 67.675003
-4.4283862 4.466114 67.675003
-4.2833571 4.4694142 67.725006
-4.1396351 4.4743629 67.800003
-3.995584 4.4793129 67.875
-3.852622 4.4859118 67.975006
-3.70786 4.4908619 68.050003
-3.5627699 4.495811 68.125
-3.417351 4.500761 68.200005
-3.2728009 4.50736 68.300003
-3.132386 4.5205588 68.500008
-2.9987149 4.5453062 68.875
-2.8530641 4.553555 69.000008
-2.7049079 4.5585051 69.075005
-2.5564229 4.5634551 69.150002
-2.4076099 4.5684042 69.224998
-2.2584679 4.5733528 69.300003
-2.108238 4.576653 69.350006
-1.959905 4.5849018 69.474998
-6.587152 4.6738238 68.550003
-6.4346972 4.6721201 68.525002
-6.282351 4.6704149 68.500008
-6.1278758 4.667006 68.450005
-5.971437 4.6618919 68.375
-5.8068118 4.649961 68.200005
-5.6429539 4.6380291 68.025002
-5.4879379 4.632915 67.950005
-5.333251 4.6278019 67.875
-5.1808019 4.624393 67.825005
-5.0267181 4.6192789 67.75
-4.8747621 4.61587 67.700005
-4.7230239 4.6124611 67.650002
-4.5748868 4.6124611 67.650002
-4.4267511 4.6124611 67.650002
-4.281775 4.61587 67.700005
-4.1365819 4.6192789 67.75
-3.991169 4.6226878 67.800003
-3.8469551 4.6278019 67.875
-3.7024109 4.632915 67.950005
-3.5575399 4.6380291 68.025002
-3.4123399 4.6431432 68.100006
-3.2680089 4.649961 68.200005
-3.1243839 4.658484 68.325005
-2.9856529 4.675529 68.574997
-2.8458281 4.692574 68.824997
-2.7009921 4.7028012 68.974998
-2.5536511 4.70962 69.075005
-2.4058709 4.7164378 69.175003
-2.256839 4.7215509 69.250008
-2.108238 4.7283692 69.350006
-1.9690731 4.7590499 69.800003
-6.5823469 4.820271 68.500008
-6.4276538 4.816752 68.450005
-6.27318 4.8132339 68.400002
-6.1166849 4.8079562 68.325005
-5.9561529 4.79916 68.200005
-5.7919121 4.7868462 68.025002
-5.6346588 4.779809 67.925003
-5.4798622 4.7745309 67.850006
-5.3273578 4.7710128 67.800003
-5.1750741 4.7674942 67.75
-5.0230079 4.7639761 67.700005
-4.872962 4.7622161 67.675003
-4.7230239 4.760457 67.650002
-4.5731969 4.758698 67.625008
-4.4251151 4.758698 67.625008
-4.2786131 4.760457 67.650002
-4.1320028 4.7622161 67.675003
-3.9867539 4.7657351 67.725006
-3.8412869 4.7692542 67.775002
-3.6969631 4.7745309 67.850006
-3.553618 4.7815681 67.950005
-3.408582 4.7868462 68.025002
-3.2632179 4.7921238 68.100006
-3.1198111 4.80092 68.225006
-2.9769461 4.8114748 68.375
-2.836524 4.8273082 68.600006
-2.694139 4.841382 68.800003
-2.5490291 4.8519368 68.950005
-2.4032631 4.862493 69.100006
-2.255209 4.8695288 69.200005
-2.108238 4.880085 69.350006
-1.9683681 4.9099908 69.775002
-1.8207819 4.9240651 69.974998
-6.57514 4.964685 68.425003
-6.4229579 4.9628711 68.400002
-6.2663002 4.9574289 68.325005
-6.105495 4.948359 68.200005
-5.9408708 4.9356618 68.025002
-5.77914 4.9247789 67.875
-5.62429 4.9193368 67.800003
-5.471786 4.915709 67.75
-5.3195009 4.9120822 67.700005
-5.1693449 4.9102669 67.675003
-5.0192981 4.908453 67.650002
-4.8693609 4.9066401 67.625008
-4.7195339 4.9048262 67.600006
-4.571507 4.9048262 67.600006
-4.4234791 4.9048262 67.600006
-4.2770319 4.9066401 67.625008
-4.130476 4.908453 67.650002
-3.9838109 4.9102669 67.675003
-3.8384531 4.9138961 67.725006
-3.6942379 4.9193368 67.800003
-3.548388 4.922965 67.850006
-3.404824 4.9302211 67.950005
-3.259624 4.9356618 68.025002
-3.115238 4.9429178 68.125
-2.9704151 4.9501729 68.225006
-2.8272209 4.9610572 68.375
-2.685328 4.9755678 68.574997
-2.543484 4.9918938 68.800003
-2.3989151 5.004591 68.974998
-2.2527649 5.0154738 69.125
-2.1067181 5.028172 69.300003
-1.964136 5.051753 69.625
-1.81883 5.0717058 69.900009
-6.7274318 5.1162462 68.450005
-6.5727382 5.1125078 68.400002
-6.4182639 5.1087708 68.350006
-6.2594218 5.1012959 68.25
-6.094305 5.0882158 68.075005
-5.9277701 5.073267 67.875
-5.768497 5.0639238 67.75
-5.615994 5.0601869 67.700005
-5.4637089 5.0564499 67.650002
-5.3136082 5.0545821 67.625008
-5.1655259 5.0545821 67.625008
-5.0155892 5.0527129 67.600006
-4.8657608 5.0508442 67.575005
-4.7177882 5.0508442 67.575005
-4.5698161 5.0508442 67.575005
-4.4218431 5.0508442 67.575005
-4.2754512 5.0527129 67.600006
-4.1289501 5.0545821 67.625008
-3.9823389 5.0564499 67.650002
-3.8370359 5.0601869 67.700005
-3.691514 5.0639238 67.75
-3.545773 5.0676618 67.800003
-3.3998129 5.0713992 67.850006
-3.254832 5.0770049 67.925003
-3.110666 5.0844789 68.025002
-2.964972 5.090085 68.100006
-2.8210189 5.0994282 68.225006
-2.677496 5.11064 68.375
-2.535166 5.1255879 68.574997
-2.391959 5.1405368 68.775002
-2.2478769 5.1554861 68.974998
-2.1029179 5.170435 69.175003
-1.959905 5.1928582 69.474998
-1.812976 5.2078071 69.675003
-1.664575 5.2208881 69.850006
-6.7249751 5.26407 68.425003
-6.5703349 5.260222 68.375
-6.415915 5.2563758 68.325005
-6.254837 5.2467589 68.200005
-6.0786381 5.22368 67.900002
-5.912487 5.2082939 67.700005
-5.7599831 5.2044468 67.650002
-5.6076989 5.2006011 67.600006
-5.4576521 5.1986771 67.575005
-5.309679 5.1986771 67.575005
-5.1597972 5.196754 67.550003
-5.011879 5.196754 67.550003
-4.8639612 5.196754 67.550003
-4.716043 5.196754 67.550003
-4.5681248 5.196754 67.550003
-4.420207 5.196754 67.550003
-4.27387 5.1986771 67.575005
-4.1274238 5.2006011 67.600006
-3.9808681 5.2025242 67.625008
-3.8342021 5.2044468 67.650002
-3.6887901 5.2082939 67.700005
-3.541851 5.210217 67.725006
-3.3973081 5.2159872 67.800003
-3.2512381 5.2198329 67.850006
-3.1060929 5.2256031 67.925003
-2.960618 5.2313728 68
-2.814816 5.237143 68.075005
-2.670644 5.2467589 68.200005
-2.5286961 5.262146 68.400002
-2.3858731 5.2775331 68.600006
-2.243803 5.2967649 68.850006
-2.0998781 5.314075 69.075005
-1.9570839 5.3371539 69.375
-1.809723 5.3506169 69.550003
-1.660404 5.3602338 69.675003
-6.722517 5.4117832 68.400002
-6.567934 5.4078269 68.350006
-6.413568 5.4038711 68.300003
-6.243372 5.3860688 68.075005
-6.058495 5.3544211 67.675003
-5.9037542 5.3484869 67.600006
-5.7514691 5.344532 67.550003
-5.6014771 5.3425541 67.525009
-5.4515939 5.3405752 67.5
-5.3037858 5.3405752 67.5
-5.154068 5.3385968 67.475006
-5.0063138 5.3385968 67.475006
-4.858561 5.3385968 67.475006
-4.7108059 5.3385968 67.475006
-4.564744 5.3405752 67.5
-4.418571 5.3425541 67.525009
-4.2722878 5.344532 67.550003
-4.1258969 5.346509 67.575005
-3.9793961 5.3484869 67.600006
-3.8327849 5.3504648 67.625008
-3.686065 5.3524432 67.650002
-3.5392361 5.3544211 67.675003
-3.393549 5.358377 67.725006
-3.2476439 5.3623328 67.775002
-3.1015201 5.3662891 67.825005
-2.956265 5.3722229 67.900002
-2.8106811 5.3781571 67.975006
-2.6657491 5.3860688 68.075005
-2.521302 5.3959589 68.200005
-2.378917 5.4117832 68.400002
-2.238914 5.4355192 68.700005
-2.0975981 5.4592552 69.000008
-1.954968 5.4829912 69.300003
-1.809072 5.500793 69.525002
-1.658021 5.5047488 69.575005
-6.7200599 5.5593872 68.375
-6.567934 5.5573549 68.350006
-6.4065261 5.5471911 68.225006
-6.208981 5.5045052 67.700005
-6.0495429 5.4943409 67.575005
-5.897203 5.4902759 67.525009
-5.7450829 5.4862108 67.475006
-5.5952559 5.4841781 67.450005
-5.4455371 5.4821448 67.425003
-5.295928 5.480113 67.400002
-5.1483388 5.480113 67.400002
-5.0007501 5.480113 67.400002
-4.8531599 5.480113 67.400002
-4.7055712 5.480113 67.400002
-4.5596709 5.4821448 67.425003
-4.4136629 5.4841781 67.450005
-4.2691259 5.4882431 67.5
-4.1228442 5.4902759 67.525009
-3.9764531 5.4923091 67.550003
-3.8285351 5.4923091 67.550003
-3.6819789 5.4943409 67.575005
-3.5353141 5.4963751 67.600006
-3.3885391 5.4984069 67.625008
-3.242852 5.5024719 67.675003
-3.096947 5.506537 67.725006
-2.951911 5.5126362 67.800003
-2.8065469 5.518734 67.875
-2.6608541 5.5248318 67.950005
-2.5157571 5.5329618 68.050003
-2.3702221 5.5410929 68.150002
-2.234026 5.573616 68.550003
-2.0960779 5.6061392 68.950005
-1.9563791 5.6386619 69.350006
-1.809072 5.6528912 69.525002
-1.657426 5.654923 69.550003
-6.7151461 5.7047949 68.325005
-6.563128 5.7027078 68.300003
-6.38305 5.6755719 67.975006
-6.1998091 5.6442618 67.600006
-6.0450668 5.638 67.525009
-5.8906541 5.6317372 67.450005
-5.7386971 5.627563 67.400002
-5.5890341 5.6254749 67.375008
-5.4374609 5.6213002 67.325005
-5.2900362 5.6213002 67.325005
-5.1406999 5.6192141 67.300003
-4.99333 5.6192141 67.300003
-4.8459601 5.6192141 67.300003
-4.6985888 5.6192141 67.300003
-4.5545998 5.6233878 67.350006
-4.4087548 5.6254749 67.375008
-4.2628012 5.627563 67.400002
-4.1182652 5.6317372 67.450005
-3.972038 5.6338248 67.475006
-3.825701 5.6359119 67.5
-3.677892 5.6359119 67.5
-3.5313909 5.638 67.525009
-3.3847799 5.6400871 67.550003
-3.23806 5.6421738 67.575005
-3.0923741 5.646349 67.625008
-2.947557 5.6526108 67.700005
-2.802412 5.658874 67.775002
-2.6569381 5.6651359 67.850006
-2.5111361 5.6713982 67.925003
-2.365005 5.67766 68
-2.22262 5.6943588 68.200005
-2.0975981 5.7611551 69.000008
-1.9577889 5.7945518 69.400002
-1.808422 5.8029022 69.500008
-1.65683 5.8049889 69.525002
-1.50621 5.8112521 69.600006
-6.7077751 5.8478422 68.25
-6.5535202 5.8435578 68.200005
-6.3619218 5.8050008 67.75
-6.197516 5.7900062 67.575005
-6.0405908 5.7814379 67.475006
-5.8862872 5.775012 67.400002
-5.7323108 5.7685862 67.325005
-5.580739 5.7643018 67.275009
-5.4314032 5.7621589 67.25
-5.2802138 5.7578759 67.200005
-5.1311522 5.755733 67.175003
-4.984056 5.755733 67.175003
-4.8369589 5.755733 67.175003
-4.691607 5.7578759 67.200005
-4.5461459 5.7600179 67.225006
-4.4005761 5.7621589 67.25
-4.2564769 5.7664442 67.300003
-4.1121588 5.7707291 67.350006
-3.967623 5.775012 67.400002
-3.82145 5.777154 67.425003
-3.673805 5.777154 67.425003
-3.5248539 5.775012 67.400002
-3.3785169 5.777154 67.425003
-3.233268 5.7814379 67.475006
-3.087801 5.7857232 67.525009
-2.943203 5.7921491 67.600006
-2.7982769 5.798574 67.675003
-2.6530221 5.8050008 67.75
-2.508363 5.81357 67.850006
-2.361527 5.817853 67.900002
-2.2161019 5.8264208 68
-2.0983579 5.914247 69.025002
-1.9570839 5.9442348 69.375
-1.807771 5.9528041 69.474998
-1.656234 5.954946 69.500008
-1.505128 5.959229 69.550003
-6.6954889 5.986167 68.125
-6.5367041 5.9773812 68.025002
-6.3548789 5.9466262 67.675003
-6.1929312 5.933445 67.525009
-6.0361142 5.9246578 67.425003
-5.8819199 5.9180679 67.350006
-5.725925 5.9092808 67.25
-5.5745168 5.9048882 67.200005
-5.421308 5.8982968 67.125008
-5.272356 5.8961 67.099998
-5.121604 5.8917069 67.050003
-4.974782 5.8917069 67.050003
-4.8279581 5.8917069 67.050003
-4.6811352 5.8917069 67.050003
-4.5360031 5.8939042 67.075005
-4.392396 5.8982968 67.125008
-4.2469902 5.9004941 67.150002
-4.0999479 5.9004941 67.150002
-3.9278879 5.8631492 66.725006
-3.781776 5.8631492 66.725006
-3.6452 5.8785262 66.900002
-3.5117791 5.9004941 67.150002
-3.3697481 5.9092808 67.25
-3.2248831 5.9136739 67.300003
-3.0809419 5.9202652 67.375008
-2.9377611 5.9290519 67.475006
-2.794142 5.937839 67.575005
-2.650085 5.9466262 67.675003
-2.5046661 5.9532161 67.75
-2.3589189 5.959806 67.825005
-2.212028 5.9642 67.875
-2.092278 6.047677 68.824997
-1.955673 6.0916119 69.325005
-1.80582 6.0982022 69.400002
-1.655043 6.1025958 69.450005
-1.504046 6.1069889 69.500008
-6.839643 6.1307001 68.075005
-6.680747 6.1216941 67.975006
-6.5174851 6.1081848 67.825005
-6.347836 6.087923 67.600006
-6.188344 6.0766649 67.475006
-6.0316381 6.0676599 67.375008
-5.875371 6.0586538 67.275009
-5.7195401 6.0496469 67.175003
-5.5662212 6.0428929 67.099998
-5.4132318 6.036139 67.025009
-5.2625341 6.0316362 66.975006
-5.1120558 6.027133 66.925003
-4.9636521 6.0248818 66.900002
-4.8171568 6.0248818 66.900002
-4.6706629 6.0248818 66.900002
-4.5258579 6.027133 66.925003
-4.3809462 6.0293851 66.950005
-4.2311778 6.0248818 66.900002
-4.063314 5.9933619 66.550003
-3.9175861 5.9933619 66.550003
-3.7746911 5.9978638 66.599998
-3.6329401 6.0046191 66.675003
-3.4947829 6.018127 66.825005
-3.3572209 6.0338879 67
-3.2152989 6.0428929 67.099998
-3.0740831 6.0541511 67.225006
-2.9312301 6.0631571 67.325005
-2.7889731 6.0744138 67.450005
-2.64519 6.0834188 67.550003
-2.5009689 6.0924249 67.650002
-2.3554411 6.0991802 67.725006
-2.2087691 6.103683 67.775002
-2.0770781 6.153214 68.325005
-1.953558 6.2365179 69.250008
-1.8038681 6.2432728 69.325005
-1.653255 6.2477751 69.375
-6.8270841 6.268096 67.950005
-6.6684618 6.258872 67.850006
-6.5078759 6.2473412 67.725006
-6.3431411 6.2311978 67.550003
-6.1837592 6.219667 67.425003
-6.0249238 6.2081361 67.300003
-5.8688202 6.1989121 67.200005
-5.7131538 6.1896868 67.099998
-5.5579262 6.1804619 67
-5.4051552 6.1735439 66.925003
-5.2546768 6.168932 66.875008
-5.1044178 6.16432 66.825005
-4.956233 6.162014 66.800003
-4.808157 6.159708 66.775009
-4.6601901 6.1574011 66.75
-4.5140238 6.1574011 66.75
-4.3629498 6.1504831 66.675003
-4.2058802 6.1343398 66.5
-4.057209 6.1297269 66.450005
-3.9146421 6.1343398 66.5
-3.771858 6.1389518 66.550003
-3.6302159 6.1458712 66.625008
-3.489553 6.1550951 66.725006
-3.349705 6.166625 66.849998
-3.208112 6.1758499 66.950005
-3.0660801 6.1850748 67.050003
-2.9246991 6.1966052 67.175003
-2.7827711 6.2081361 67.300003
-2.640296 6.219667 67.425003
-2.497272 6.2311978 67.550003
-2.3528321 6.2404218 67.650002
-2.2063251 6.2450352 67.700005
-2.066438 6.270402 67.975006
-1.951442 6.3810968 69.175003
-1.801917 6.3880148 69.250008
-1.651468 6.3926268 69.300003
-1.5008 6.3972402 69.350006
-1.349913 6.4018521 69.400002
-6.8195491 6.4096661 67.875
-6.6610909 6.4002228 67.775002
-6.500668 6.3884182 67.650002
-6.3360982 6.3718929 67.475006
-6.1768808 6.3600888 67.350006
-6.0182099 6.3482838 67.225006
-5.860086 6.3364801 67.099998
-5.704639 6.3270369 67
-5.5517039 6.3199539 66.925003
-5.399097 6.3128719 66.849998
-5.24682 6.3057899 66.775009
-5.0967789 6.3010678 66.725006
-4.9469581 6.2963462 66.675003
-4.7991562 6.2939849 66.650002
-4.6497178 6.2892628 66.599998
-4.5004988 6.2845421 66.550003
-4.348228 6.2750988 66.450005
-4.1995549 6.2703772 66.400002
-4.0541549 6.2703772 66.400002
-3.910228 6.272738 66.425003
-3.767607 6.2774591 66.475006
-3.6261289 6.2845421 66.550003
-3.485631 6.2939849 66.650002
-3.3446939 6.3034282 66.75
-3.20332 6.3128719 66.849998
-3.0615079 6.3223152 66.950005
-2.9192569 6.331759 67.050003
-2.777602 6.3435631 67.175003
-2.635401 6.3553672 67.300003
-2.4935751 6.3695321 67.450005
-2.349354 6.3789749 67.550003
-2.204695 6.3884182 67.650002
-2.062638 6.4073062 67.850006
-1.94721 6.5182648 69.025002
-1.799315 6.5300689 69.150002
-1.64968 6.5371509 69.224998
-1.499177 6.541873 69.275002
-1.348454 6.5465951 69.325005
-6.8145251 6.5533242 67.825005
-6.6586342 6.5460768 67.75
-6.4934611 6.5291681 67.575005
-6.3290558 6.512259 67.400002
-6.1677089 6.497766 67.25
-6.0092578 6.4856892 67.125008
-5.8535371 6.476027 67.025009
-5.6982541 6.4663639 66.925003
-5.5454831 6.4591179 66.849998
-5.3930411 6.4518719 66.775009
-5.2428908 6.4470401 66.725006
-5.0910511 6.4397941 66.650002
-4.9413929 6.4349632 66.599998
-4.791955 6.4301319 66.550003
-4.642736 6.4253011 66.5
-4.4920449 6.4180541 66.425003
-4.3433199 6.4132242 66.375008
-4.196393 6.4108081 66.349998
-4.0511031 6.4108081 66.349998
-3.908756 6.415638 66.400002
-3.7661901 6.4204702 66.450005
-3.6247671 6.4277158 66.525002
-3.483016 6.4349632 66.599998
-3.3409359 6.4422088 66.675003
-3.1997261 6.4518719 66.775009
-3.0580781 6.461534 66.875008
-2.915992 6.4711962 66.975006
-2.7745011 6.483273 67.099998
-2.6324639 6.4953508 67.225006
-2.4898789 6.5074291 67.350006
-2.345876 6.5170908 67.450005
-2.202251 6.5291681 67.575005
-2.066438 6.5678158 67.975006
-1.938747 6.6402822 68.724998
-1.7954119 6.666853 69.000008
-1.647298 6.6789312 69.125
-1.497013 6.683763 69.175003
-1.346509 6.688592 69.224998
-6.9707451 6.7091141 67.900002
-6.8145251 6.701704 67.825005
-6.656177 6.691823 67.725006
-6.4790468 6.662179 67.425003
-6.31497 6.6448879 67.25
-6.1562452 6.6325369 67.125008
-6.0003052 6.6226559 67.025009
-5.8448029 6.6127748 66.925003
-5.6918678 6.6053638 66.849998
-5.5413361 6.6004248 66.800003
-5.3890018 6.5930138 66.725006
-5.2389622 6.5880728 66.675003
-5.0872312 6.5806632 66.599998
-4.9376841 6.5757222 66.550003
-4.7865548 6.5683122 66.475006
-4.6357551 6.5609012 66.400002
-4.4869738 6.5559602 66.349998
-4.3400478 6.5534911 66.325005
-4.1932311 6.5510201 66.300003
-4.0495758 6.5534911 66.325005
-3.907284 6.5584311 66.375008
-3.7647729 6.5633712 66.425003
-3.623405 6.5707822 66.5
-3.481709 6.5781922 66.575005
-3.339684 6.5856032 66.650002
-3.19733 6.5930138 66.725006
-3.0546479 6.6004248 66.800003
-2.9127259 6.6103048 66.900002
-2.770366 6.6201859 67
-2.6295271 6.6350069 67.150002
-2.486181 6.6448879 67.25
-2.3423979 6.6547689 67.350006
-2.202251 6.677001 67.575005
-2.0755579 6.7461681 68.275002
-1.937337 6.7856908 68.675003
-1.791509 6.8029819 68.850006
-1.643723 6.8153329 68.974998
-1.494849 6.8252139 69.075005
-1.345536 6.8350949 69.175003
-6.9707451 6.857657 67.900002
-6.8170371 6.8526068 67.850006
-6.6438909 6.8273592 67.600006
-6.4622312 6.7920098 67.25
-6.3032331 6.779386 67.125008
-6.1470742 6.7692852 67.025009
-5.991353 6.7591848 66.925003
-5.8404369 6.7541361 66.875008
-5.6876111 6.7465611 66.800003
-5.5371871 6.7415109 66.75
-5.3869829 6.7364621 66.700005
-5.2369981 6.7314119 66.650002
-5.0853209 6.7238369 66.575005
-4.9339738 6.7162619 66.5
-4.7829552 6.7086878 66.425003
-4.6322641 6.7011132 66.349998
-4.483593 6.696063 66.300003
-4.3367758 6.6935382 66.275002
-4.191649 6.6935382 66.275002
-4.0495758 6.6985869 66.325005
-3.907284 6.7036381 66.375008
-3.7647729 6.7086878 66.425003
-3.623405 6.7162619 66.5
-3.480401 6.721313 66.550003
-3.337178 6.7263622 66.599998
-3.1949339 6.7339358 66.675003
-3.052362 6.7415109 66.75
-2.909461 6.7490859 66.825005
-2.7682991 6.7617111 66.950005
-2.62659 6.7743349 67.075005
-2.4834089 6.7844348 67.175003
-2.3406601 6.79706 67.300003
-2.210398 6.8500819 67.825005
-2.080878 6.9132051 68.450005
-1.936631 6.933404 68.650002
-1.7889071 6.9435039 68.750008
-1.64134 6.9561291 68.875
-1.492684 6.966228 68.974998
-6.9681792 7.0036211 67.875
-6.8170371 7.0010409 67.850006
-6.6144071 6.9442902 67.300003
-6.4502201 6.9262319 67.125008
-6.2938418 6.915915 67.025009
-6.1401949 6.9081759 66.950005
-5.986877 6.9004369 66.875008
-5.8338871 6.8926978 66.800003
-5.685483 6.8901191 66.775009
-5.5351138 6.8849592 66.725006
-5.384964 6.8797998 66.675003
-5.235034 6.8746409 66.625008
-5.0834122 6.8669019 66.550003
-4.9321189 6.8591628 66.475006
-4.7811551 6.8514242 66.400002
-4.6305189 6.8436852 66.325005
-4.4819021 6.8385258 66.275002
-4.3351402 6.835947 66.25
-4.191649 6.8385258 66.275002
-4.0480499 6.8411059 66.300003
-3.905812 6.8462648 66.349998
-3.7647729 6.8540039 66.425003
-3.6220429 6.8591628 66.475006
-3.4790931 6.8643222 66.525002
-3.3359261 6.869482 66.575005
-3.192538 6.8746409 66.625008
-3.050076 6.88238 66.700005
-2.907284 6.8901191 66.775009
-2.765198 6.9004369 66.875008
-2.6246319 6.915915 67.025009
-2.48156 6.9262319 67.125008
-2.3397901 6.94171 67.275009
-2.216917 7.0190992 68.025002
-2.0823979 7.0681109 68.500008
-1.935926 7.0810089 68.625
-1.787606 7.088748 68.700005
-1.639553 7.0990658 68.800003
-1.49052 7.1068048 68.875
-7.1194291 7.1547441 67.900002
-6.9656119 7.1494761 67.850006
-6.8044782 7.1363039 67.725006
-6.604578 7.0809841 67.200005
-6.445415 7.067812 67.075005
-6.2891469 7.0572758 66.975006
-6.1356101 7.0493731 66.900002
-5.9823999 7.0414691 66.825005
-5.8317041 7.036201 66.775009
-5.6812248 7.0309319 66.725006
-5.53304 7.0282979 66.700005
-5.3829451 7.0230298 66.650002
-5.2330689 7.0177612 66.599998
-5.0834122 7.0124922 66.550003
-4.930264 7.001956 66.450005
-4.779355 6.9940519 66.375008
-4.6287732 6.9861488 66.300003
-4.4802108 6.9808798 66.25
-4.3335042 6.9782472 66.225006
-4.1900678 6.9808798 66.25
-4.046524 6.9835148 66.275002
-3.904341 6.9887838 66.325005
-3.763356 6.9966869 66.400002
-3.6206801 7.001956 66.450005
-3.4777861 7.0072231 66.5
-3.3346729 7.0124922 66.550003
-3.19134 7.0177612 66.599998
-3.0477891 7.0230298 66.650002
-2.905107 7.0309319 66.725006
-2.7631299 7.0414691 66.825005
-2.621695 7.0546408 66.950005
-2.479712 7.067812 67.075005
-2.3389201 7.0862522 67.25
-2.2136581 7.1573792 67.925003
-2.0823979 7.217968 68.500008
-1.935926 7.2311392 68.625
-1.787606 7.2390409 68.700005
-1.638361 7.2443099 68.750008
-1.4894381 7.252213 68.824997
-7.1141868 7.2979102 67.850006
-6.957912 7.2898431 67.775002
-6.7843838 7.2629528 67.525009
-6.6070361 7.2306852 67.225006
-6.445415 7.21455 67.075005
-6.2891469 7.203795 66.975006
-6.133317 7.1930389 66.875008
-5.9801621 7.1849718 66.800003
-5.8295202 7.179594 66.75
-5.6790972 7.1742158 66.700005
-5.5309658 7.1715269 66.675003
-5.3829451 7.168839 66.650002
-5.2330689 7.1634598 66.599998
-5.081502 7.1553931 66.525002
-4.930264 7.147326 66.450005
-4.777555 7.13657 66.349998
-4.627028 7.1285028 66.275002
-4.4785209 7.123126 66.225006
-4.3318691 7.1204371 66.200005
-4.188488 7.123126 66.225006
-4.0449972 7.125814 66.25
-3.902869 7.1311932 66.300003
-3.761939 7.1392589 66.375008
-3.619318 7.1446381 66.425003
-3.4764791 7.1500149 66.475006
-3.3321669 7.1527038 66.5
-3.1889451 7.158083 66.550003
-3.0466461 7.1661501 66.625008
-2.90293 7.1715269 66.675003
-2.7610631 7.1822839 66.775009
-2.6197369 7.1957278 66.900002
-2.477864 7.2091742 67.025009
-2.3389201 7.2333741 67.25
-2.2006221 7.2629528 67.525009
-2.0823979 7.3678231 68.500008
-1.935926 7.381268 68.625
