ply
format ascii 1.0
comment PCL generated
element vertex 1574
property float x
property float y
property float z
element face 0
element camera 0
property float view_px
property float view_py
property float view_pz
property float x_axisx
property float x_axisy
property float x_axisz
property float y_axisx
property float y_axisy
property float y_axisz
property float z_axisx
property float z_axisy
property float z_axisz
property float focal
property float scalex
property float scaley
property float centerx
property float centery
property int viewportx
property int viewporty
property float k1
property float k2
end_header
-7.9044652 8.0922813 69.575005
-7.7409701 8.0806494 69.474998
-7.5779142 8.0690184 69.375
-7.4126201 8.0544796 69.250008
-7.250494 8.0428486 69.150002
-7.0888062 8.0312176 69.050003
-6.930068 8.0224943 68.974998
-6.7716579 8.0137711 68.900002
-6.6135769 8.0050478 68.824997
-6.4581718 7.9992318 68.775002
-6.3029861 7.9934158 68.724998
-6.1457801 7.984694 68.650002
-5.991087 7.978878 68.600006
-5.8387408 7.9759698 68.574997
-5.6865048 7.973062 68.550003
-5.5343781 7.9701548 68.525002
-5.384325 7.9701548 68.525002
-5.2361822 7.973062 68.550003
-5.0879278 7.9759698 68.574997
-4.9413671 7.9817858 68.625
-4.7945862 7.9876008 68.675003
-4.6475849 7.9934158 68.724998
-4.4987302 7.996325 68.750008
-4.3497648 7.9992318 68.775002
-4.2006912 8.00214 68.800003
-4.050036 8.00214 68.800003
-3.8993809 8.00214 68.800003
-3.750088 8.0050478 68.824997
-3.6019931 8.0108633 68.875
-3.4561839 8.0224943 68.974998
-3.309937 8.0341253 69.075005
-3.164396 8.0486641 69.200005
-3.01613 8.0573883 69.275002
-2.866503 8.0632029 69.325005
-2.715677 8.0661106 69.350006
-2.5647409 8.0690184 69.375
-2.411958 8.0661106 69.350006
-2.260098 8.0661106 69.350006
-2.1074779 8.0632029 69.325005
-1.954968 8.0602951 69.300003
-1.802567 8.0573883 69.275002
-1.650872 8.0573883 69.275002
-1.499718 8.0602951 69.300003
-1.349913 8.0719261 69.400002
-1.200101 8.0864649 69.525002
-1.050119 8.1039114 69.675003
-0.89851397 8.1126347 69.750008
-0.74631298 8.1184502 69.800003
-7.9016252 8.2415257 69.550003
-7.7381849 8.2296762 69.450005
-7.5751829 8.2178268 69.350006
-7.4099441 8.2030144 69.224998
-7.2452521 8.1882019 69.100006
-7.083673 8.1763535 69.000008
-6.925045 8.1674652 68.925003
-6.7667451 8.158577 68.850006
-6.6087732 8.1496906 68.775002
-6.4534769 8.1437635 68.724998
-6.2961078 8.1348782 68.650002
-6.141304 8.128953 68.600006
-5.9867201 8.1230278 68.550003
-5.8344841 8.1200657 68.525002
-5.6823568 8.1171036 68.500008
-5.5323591 8.1171036 68.500008
-5.384325 8.1200657 68.525002
-5.234272 8.1200657 68.525002
-5.0879278 8.1259899 68.574997
-4.9395671 8.128953 68.600006
-4.79284 8.1348782 68.650002
-4.6442041 8.1378403 68.675003
-4.4970942 8.1437635 68.724998
-4.3481841 8.1467276 68.750008
-4.1991649 8.1496906 68.775002
-4.048564 8.1496906 68.775002
-3.8993809 8.1526527 68.800003
-3.750088 8.1556139 68.824997
-3.6019931 8.16154 68.875
-3.4561839 8.1733894 68.974998
-3.309937 8.1852398 69.075005
-3.164396 8.2000513 69.200005
-3.01613 8.2089386 69.275002
-2.8675361 8.2178268 69.350006
-2.716655 8.220789 69.375
-2.565665 8.2237501 69.400002
-2.4136961 8.2237501 69.400002
-2.2609129 8.220789 69.375
-2.1089981 8.220789 69.375
-1.9563791 8.2178268 69.350006
-1.8038681 8.2148638 69.325005
-1.651468 8.2119007 69.300003
-1.500259 8.2148638 69.325005
-1.349913 8.2237501 69.400002
-1.19967 8.2356014 69.500008
-1.0489891 8.2474508 69.600006
-0.89754802 8.2563381 69.675003
-0.745511 8.2622623 69.724998
-7.9186659 8.4117823 69.700005
-7.7381849 8.3816099 69.450005
-7.572453 8.3665257 69.325005
-7.407268 8.3514395 69.200005
-7.24263 8.3363543 69.075005
-7.0811062 8.3242846 68.974998
-6.9200211 8.3122168 68.875
-6.7618299 8.3031635 68.800003
-6.6063709 8.2971315 68.750008
-6.448782 8.2880793 68.675003
-6.2938151 8.2820454 68.625
-6.1390662 8.2760115 68.574997
-5.9845371 8.2699766 68.525002
-5.832356 8.2669601 68.500008
-5.6823568 8.2669601 68.500008
-5.5323591 8.2669601 68.500008
-5.384325 8.2699766 68.525002
-5.234272 8.2699766 68.525002
-5.0860739 8.2729931 68.550003
-4.9395671 8.2790279 68.600006
-4.7910948 8.2820454 68.625
-4.6425128 8.2850618 68.650002
-4.4938231 8.2880793 68.675003
-4.3466029 8.2941141 68.724998
-4.197639 8.2971315 68.750008
-4.0470929 8.2971315 68.750008
-3.897964 8.300148 68.775002
-3.750088 8.3061819 68.824997
-3.6019931 8.3122168 68.875
-3.454931 8.3212681 68.950005
-3.3087389 8.3333368 69.050003
-3.1632531 8.3484221 69.175003
-3.0150421 8.3574734 69.250008
-2.866503 8.3665257 69.325005
-2.716655 8.3725595 69.375
-2.565665 8.375576 69.400002
-2.4136961 8.375576 69.400002
-2.2617271 8.375576 69.400002
-2.1089981 8.3725595 69.375
-1.9563791 8.3695421 69.350006
-1.8045191 8.3695421 69.350006
-1.652064 8.3665257 69.325005
-1.5008 8.3695421 69.350006
-1.349426 8.3725595 69.375
-1.198807 8.3816099 69.450005
-1.0482351 8.3936787 69.550003
-0.89658201 8.3997145 69.600006
-0.744977 8.4087648 69.675003
-7.7437558 8.5396881 69.500008
-7.5779142 8.5243292 69.375
-7.404592 8.4997549 69.175003
-7.2400079 8.484396 69.050003
-7.0785389 8.4721079 68.950005
-6.9200211 8.4628925 68.875
-6.7618299 8.4536772 68.800003
-6.6063709 8.4475336 68.750008
-6.448782 8.4383183 68.675003
-6.2938151 8.4321747 68.625
-6.1390662 8.4260311 68.574997
-5.9845371 8.4198866 68.525002
-5.832356 8.4168158 68.500008
-5.6823568 8.4168158 68.500008
-5.5343781 8.4198866 68.525002
-5.384325 8.4198866 68.525002
-5.2361822 8.4229584 68.550003
-5.0879278 8.4260311 68.574997
-4.9395671 8.4291029 68.600006
-4.78935 8.4291029 68.600006
-4.6408219 8.4321747 68.625
-4.4938231 8.4383183 68.675003
-4.3450222 8.44139 68.700005
-4.1961122 8.4444609 68.724998
-4.0470929 8.4475336 68.750008
-3.897964 8.4506054 68.775002
-3.7487259 8.4536772 68.800003
-3.6019931 8.4628925 68.875
-3.4536791 8.4690371 68.925003
-3.3075409 8.4813232 69.025002
-3.1598229 8.4905396 69.100006
-3.0128651 8.5028267 69.200005
-2.864435 8.512042 69.275002
-2.7146981 8.5181866 69.325005
-2.563817 8.5212574 69.350006
-2.412827 8.5243292 69.375
-2.2609129 8.5243292 69.375
-2.1089981 8.5243292 69.375
-1.9570839 8.5243292 69.375
-1.8045191 8.5212574 69.350006
-1.652064 8.5181866 69.325005
-1.5008 8.5212574 69.350006
-1.349426 8.5243292 69.375
-1.198375 8.5304728 69.425003
-1.047859 8.5427608 69.525002
-0.89626002 8.5489044 69.575005
-0.74444199 8.555047 69.625
-7.5888371 8.6886044 69.474998
-7.4152961 8.6635933 69.275002
-7.24263 8.6385813 69.075005
-7.0811062 8.6260748 68.974998
-6.922533 8.6166954 68.900002
-6.764287 8.6073151 68.824997
-6.6087732 8.6010628 68.775002
-6.4534769 8.5948095 68.724998
-6.2983999 8.5885572 68.675003
-6.1435418 8.582304 68.625
-5.988904 8.5760508 68.574997
-5.8366132 8.5729237 68.550003
-5.6865048 8.5729237 68.550003
-5.536397 8.5729237 68.550003
-5.3882542 8.5760508 68.574997
-5.238091 8.5760508 68.574997
-5.0897841 8.5791779 68.600006
-4.9395671 8.5791779 68.600006
-4.7910948 8.582304 68.625
-4.6408219 8.582304 68.625
-4.492187 8.5854301 68.650002
-4.343441 8.5885572 68.675003
-4.1945858 8.5916834 68.700005
-4.0470929 8.5979366 68.750008
-3.897964 8.6010628 68.775002
-3.7487259 8.6041889 68.800003
-3.6006849 8.6104422 68.850006
-3.4536791 8.6198235 68.925003
-3.305146 8.6260748 68.974998
-3.157537 8.6354542 69.050003
-3.009599 8.6448355 69.125
-2.8613341 8.6542139 69.200005
-2.711761 8.6604671 69.250008
-2.5619681 8.6667194 69.300003
-2.411958 8.6729727 69.350006
-2.260098 8.6729727 69.350006
-2.1089981 8.6760988 69.375
-1.9570839 8.6760988 69.375
-1.8045191 8.6729727 69.350006
-1.6526591 8.6729727 69.350006
-1.5008 8.6729727 69.350006
-1.349426 8.6760988 69.375
-1.198375 8.6823521 69.425003
-1.047482 8.6917324 69.500008
-0.89561599 8.6948586 69.525002
-0.74417502 8.7042379 69.600006
-7.4313521 8.8342323 69.425003
-7.258358 8.8087826 69.224998
-7.0862398 8.7833328 69.025002
-6.927557 8.7737894 68.950005
-6.7716579 8.7674255 68.900002
-6.6159801 8.7610645 68.850006
-6.4605198 8.7547016 68.800003
-6.3052802 8.7483397 68.750008
-6.1502571 8.7419767 68.700005
-5.9954529 8.7356138 68.650002
-5.842999 8.7324333 68.625
-5.6906528 8.7292519 68.600006
-5.5404348 8.7292519 68.600006
-5.3921828 8.7324333 68.625
-5.2419109 8.7324333 68.625
-5.091639 8.7324333 68.625
-4.9413671 8.7324333 68.625
-4.7910948 8.7324333 68.625
-4.6425128 8.7356138 68.650002
-4.4938231 8.7387962 68.675003
-4.3450222 8.7419767 68.700005
-4.1961122 8.7451582 68.724998
-4.0470929 8.7483397 68.750008
-3.897964 8.7515211 68.775002
-3.750088 8.7578821 68.824997
-3.6006849 8.7610645 68.850006
-3.452426 8.7674255 68.900002
-3.3039479 8.7737894 68.950005
-3.156394 8.7833328 69.025002
-3.0074229 8.7896957 69.075005
-2.859266 8.7992382 69.150002
-2.7098031 8.8056011 69.200005
-2.5601201 8.811964 69.250008
-2.410218 8.818326 69.300003
-2.260098 8.8246889 69.350006
-2.1089981 8.8278694 69.375
-1.9570839 8.8278694 69.375
-1.805169 8.8278694 69.375
-1.6526591 8.8246889 69.350006
-1.501341 8.8278694 69.375
-1.349426 8.8278694 69.375
-1.198375 8.8342323 69.425003
-1.047105 8.8405943 69.474998
-0.89561599 8.8469572 69.525002
-7.28195 8.9893475 69.450005
-7.1042051 8.9569883 69.200005
-6.935092 8.9343367 69.025002
-6.7765732 8.9246292 68.950005
-6.6231871 8.9213934 68.925003
-6.4675632 8.9149218 68.875
-6.3121572 8.9084492 68.824997
-6.1592088 8.9052134 68.800003
-6.0041881 8.8987427 68.750008
-5.8493838 8.8922701 68.700005
-5.6968751 8.8890343 68.675003
-5.5464931 8.8890343 68.675003
-5.396111 8.8890343 68.675003
-5.2457299 8.8890343 68.675003
-5.0953479 8.8890343 68.675003
-4.9449668 8.8890343 68.675003
-4.7945862 8.8890343 68.675003
-4.6442041 8.8890343 68.675003
-4.4954581 8.8922701 68.700005
-4.3466029 8.8955059 68.724998
-4.197639 8.8987427 68.750008
-4.048564 8.9019775 68.775002
-3.8993809 8.9052134 68.800003
-3.750088 8.9084492 68.824997
-3.6019931 8.9149218 68.875
-3.452426 8.9181576 68.900002
-3.3039479 8.9246292 68.950005
-3.155251 8.9311008 69.000008
-3.0063341 8.9375715 69.050003
-2.857199 8.9440451 69.100006
-2.7088239 8.9537535 69.175003
-2.559196 8.9602242 69.224998
-2.409349 8.9666958 69.275002
-2.2592831 8.9731674 69.325005
-2.1089981 8.9796391 69.375
-1.9577889 8.9828749 69.400002
-1.80582 8.9828749 69.400002
-1.653851 8.9828749 69.400002
-1.501882 8.9828749 69.400002
-1.350399 8.9861116 69.425003
-1.198807 8.9893475 69.450005
-1.047105 8.9925823 69.474998
-7.1298709 9.1412821 69.450005
-6.9501619 9.1050854 69.175003
-6.7864008 9.0886326 69.050003
-6.6279912 9.0787601 68.974998
-6.4746051 9.07547 68.950005
-6.3213291 9.0721798 68.925003
-6.1659231 9.0655975 68.875
-6.0107369 9.0590162 68.824997
-5.8578992 9.0557261 68.800003
-5.7051702 9.0524359 68.775002
-5.5525498 9.0491457 68.750008
-5.4000401 9.0458546 68.724998
-5.2495489 9.0458546 68.724998
-5.0990582 9.0458546 68.724998
-4.9485669 9.0458546 68.724998
-4.7980762 9.0458546 68.724998
-4.6475849 9.0458546 68.724998
-4.4987302 9.0491457 68.750008
-4.3481841 9.0491457 68.750008
-4.2006912 9.0557261 68.800003
-4.051507 9.0590162 68.824997
-3.902215 9.0623083 68.850006
-3.7528119 9.0655975 68.875
-3.6033001 9.0688887 68.900002
-3.4536791 9.0721798 68.925003
-3.3039479 9.07547 68.950005
-3.155251 9.0820513 69.000008
-3.0063341 9.0886326 69.050003
-2.857199 9.0952139 69.100006
-2.707844 9.1017942 69.150002
-2.559196 9.1116657 69.224998
-2.410218 9.1215382 69.300003
-2.260098 9.1281195 69.350006
-2.1097579 9.1346998 69.400002
-1.9584939 9.1379919 69.425003
-1.807121 9.1412821 69.450005
-1.655043 9.1412821 69.450005
-1.502964 9.1412821 69.450005
-1.350885 9.1412821 69.450005
-1.1992379 9.1445723 69.474998
-6.798686 9.2564192 69.175003
-6.6351981 9.2396917 69.050003
-6.481648 9.2363472 69.025002
-6.3259149 9.2296553 68.974998
-6.172637 9.2263107 68.950005
-6.0194712 9.2229652 68.925003
-5.864285 9.2162752 68.875
-5.711391 9.2129297 68.850006
-5.5586081 9.2095833 68.824997
-5.4059329 9.2062387 68.800003
-5.2533679 9.2028942 68.775002
-5.1027679 9.2028942 68.775002
-4.950367 9.1995487 68.750008
-4.7998209 9.1995487 68.750008
-4.6509671 9.2028942 68.775002
-4.5003662 9.2028942 68.775002
-4.351346 9.2062387 68.800003
-4.2037439 9.2129297 68.850006
-4.054451 9.2162752 68.875
-3.9050479 9.2196198 68.900002
-3.7568991 9.2263107 68.950005
-3.607223 9.2296553 68.974998
-3.457437 9.2330017 69.000008
-3.3075409 9.2363472 69.025002
-3.157537 9.2396917 69.050003
-3.0074229 9.2430372 69.075005
-2.858232 9.2497272 69.125
-2.7088239 9.2564192 69.175003
-2.559196 9.2631083 69.224998
-2.410218 9.2731447 69.300003
-2.2609129 9.2831802 69.375
-2.1112781 9.2932167 69.450005
-1.96061 9.2999067 69.500008
-1.809072 9.3032522 69.525002
-1.65683 9.3032522 69.525002
-1.5045871 9.3032522 69.525002
-1.352344 9.3032522 69.525002
-6.716877 9.5063496 69.900009
-6.4886899 9.3975506 69.100006
-6.3327932 9.3907509 69.050003
-6.1815901 9.3907509 69.050003
-6.026021 9.3839512 69.000008
-5.8727989 9.3805504 68.974998
-5.7176132 9.3737507 68.925003
-5.5646648 9.3703499 68.900002
-5.409862 9.3635511 68.850006
-5.2571869 9.3601503 68.824997
-5.1046228 9.3567495 68.800003
-4.953968 9.3567495 68.800003
-4.8015671 9.3533506 68.775002
-4.652657 9.3567495 68.800003
-4.5036368 9.3601503 68.824997
-4.3545079 9.3635511 68.850006
-4.2067971 9.3703499 68.900002
-4.058866 9.3771505 68.950005
-3.9092989 9.3805504 68.974998
-3.7609849 9.387351 69.025002
-3.612452 9.3941507 69.075005
-3.4624479 9.3975506 69.100006
-3.311136 9.3975506 69.100006
-3.1609671 9.4009504 69.125
-3.009599 9.4009504 69.125
-2.859266 9.4043503 69.150002
-2.7088239 9.4077501 69.175003
-2.5601201 9.4179506 69.250008
-2.411088 9.4281511 69.325005
-2.2617271 9.4383497 69.400002
-2.112798 9.4519501 69.500008
-1.962021 9.4587498 69.550003
-1.811024 9.4655495 69.600006
-1.6592129 9.4689503 69.625
-1.5067509 9.4689503 69.625
-6.2330661 9.6212673 69.625
-6.0478539 9.5694485 69.250008
-5.8834419 9.5487204 69.100006
-5.7259078 9.5383558 69.025002
-5.5707221 9.5314465 68.974998
-5.4157548 9.5245371 68.925003
-5.2610059 9.5176268 68.875
-5.1083331 9.5141745 68.850006
-4.9557681 9.5107174 68.824997
-4.8033118 9.5072632 68.800003
-4.652657 9.5072632 68.800003
-4.5036368 9.5107174 68.824997
-4.3560901 9.5176268 68.875
-4.208324 9.5245371 68.925003
-4.06181 9.5349016 69.000008
-3.9149671 9.5452652 69.075005
-3.7691591 9.5590839 69.175003
-3.620297 9.5659924 69.224998
-3.469964 9.5694485 69.250008
-3.3171251 9.5659924 69.224998
-3.164396 9.5625381 69.200005
-3.011776 9.5590839 69.175003
-2.8603001 9.5590839 69.175003
-2.7088239 9.5590839 69.175003
-2.559196 9.5659924 69.224998
-2.411088 9.579812 69.325005
-2.262542 9.5936308 69.425003
-2.1135581 9.6074495 69.525002
-1.963431 9.6178131 69.600006
-1.812976 9.6281776 69.675003
-1.661 9.6316319 69.700005
-1.5089149 9.6350861 69.724998
-8.1649237 9.7139263 69.200005
-8.0191822 9.7209444 69.250008
-7.8732209 9.7279634 69.300003
-6.0871539 9.7841129 69.700005
-5.9004712 9.7279634 69.300003
-5.7362771 9.7069073 69.150002
-5.5787988 9.6963797 69.075005
-5.419683 9.6823416 68.974998
-5.2648258 9.6753225 68.925003
-5.1083331 9.6647949 68.850006
-4.953968 9.6577759 68.800003
-4.8015671 9.6542673 68.775002
-4.6509671 9.6542673 68.775002
-4.5020018 9.6577759 68.800003
-4.3545079 9.6647949 68.850006
-4.2098498 9.6788321 68.950005
-4.0647531 9.6928692 69.050003
-3.920635 9.7104168 69.175003
-3.7746069 9.7244539 69.275002
-3.6268339 9.7349815 69.350006
-3.476227 9.7384911 69.375
-3.3219171 9.731473 69.325005
-3.1678259 9.7244539 69.275002
-3.0150421 9.7209444 69.250008
-2.8613341 9.7139263 69.200005
-2.7098031 9.7139263 69.200005
-2.559196 9.7174358 69.224998
-2.411088 9.731473 69.325005
-2.2633569 9.7490196 69.450005
-2.1143179 9.7630568 69.550003
-1.964136 9.7735853 69.625
-1.8136261 9.7841129 69.700005
-1.6615959 9.7876225 69.724998
-1.509997 9.7946405 69.775002
-8.0410337 9.7156219 68.150002
-7.8946972 9.7191868 68.175003
-7.74825 9.7227507 68.200005
-7.6016941 9.7263145 68.225006
-5.1862369 3.848356 69.900009
-5.029573 3.845603 69.850006
-4.8713832 3.8414741 69.775002
-4.713521 3.8373449 69.700005
-4.557622 3.8345921 69.650002
-4.4035239 3.833216 69.625
-4.2571688 3.838721 69.724998
-5.3431211 4.004137 69.950005
-5.182528 3.9984131 69.850006
-5.0241728 3.9941199 69.775002
-4.8644009 3.988395 69.675003
-4.7084479 3.985533 69.625
-4.5527148 3.982671 69.575005
-4.3987808 3.98124 69.550003
-4.2480102 3.982671 69.575005
-4.1015439 3.988395 69.675003
-5.3393021 4.1541939 69.900009
-5.1788182 4.1482511 69.800003
-5.0187721 4.1423068 69.700005
-4.8609099 4.1378498 69.625
-4.7033758 4.1333928 69.550003
-4.5494428 4.131907 69.525002
-4.3956189 4.1304221 69.500008
-4.244957 4.131907 69.525002
-4.0941858 4.1333928 69.550003
-3.947556 4.1393361 69.650002
-3.8032129 4.1482511 69.800003
-3.6555979 4.1541939 69.900009
-3.5062921 4.1586509 69.974998
-5.4943299 4.3086529 69.925003
-5.3316631 4.300951 69.800003
-5.1713991 4.2947879 69.700005
-5.0133719 4.2901669 69.625
-4.8556738 4.2855458 69.550003
-4.6983051 4.2809238 69.474998
-4.5429001 4.277843 69.425003
-4.3908749 4.277843 69.425003
-4.238852 4.277843 69.425003
-4.0897708 4.2809238 69.474998
-3.9418881 4.2855458 69.550003
-3.7950399 4.291708 69.650002
-3.647753 4.2978702 69.750008
-3.4975231 4.300951 69.800003
-3.347074 4.3040309 69.850006
-3.1964059 4.3071132 69.900009
-3.0455191 4.3101931 69.950005
-5.647449 4.461627 69.925003
-5.484508 4.45365 69.800003
-5.3240242 4.4472699 69.700005
-5.165833 4.4424839 69.625
-5.0079708 4.4376988 69.550003
-4.8486919 4.4313178 69.450005
-4.693233 4.4281278 69.400002
-4.537992 4.4249382 69.350006
-4.3861318 4.4249382 69.350006
-4.2357988 4.4265332 69.375
-4.0853562 4.4281278 69.400002
-3.9362209 4.4313178 69.450005
-3.788229 4.4361038 69.525002
-3.639909 4.4408889 69.600006
-3.490006 4.4440789 69.650002
-3.339886 4.4472699 69.700005
-3.1895471 4.45046 69.750008
-3.0389881 4.45365 69.800003
-2.888211 4.456841 69.850006
-2.738193 4.461627 69.925003
-5.7984929 4.6129498 69.900009
-5.635334 4.604701 69.775002
-5.4766502 4.599751 69.700005
-5.318295 4.5948009 69.625
-5.1602688 4.5898519 69.550003
-5.0025711 4.5849018 69.474998
-4.845201 4.5799532 69.400002
-4.6881609 4.5750041 69.325005
-4.5347199 4.5733528 69.300003
-4.3813891 4.5717039 69.275002
-4.2312198 4.5733528 69.300003
-4.0809422 4.5750041 69.325005
-3.9319699 4.5783029 69.375
-3.7827799 4.5816031 69.425003
-3.6333711 4.5849018 69.474998
-3.483743 4.588202 69.525002
-3.3338971 4.5915022 69.575005
-3.18383 4.5948009 69.625
-3.033545 4.5981011 69.675003
-2.8830421 4.6014009 69.724998
-2.7323191 4.604701 69.775002
-2.5823021 4.6096501 69.850006
-2.4319561 4.6145992 69.925003
-6.1111708 4.7709818 69.974998
-5.947299 4.7624602 69.850006
-5.7860498 4.7556419 69.750008
-5.6272569 4.7505279 69.675003
-5.470757 4.7471189 69.625
-5.3125658 4.7420049 69.550003
-5.1547041 4.7368922 69.474998
-4.9971709 4.7317781 69.400002
-4.8399658 4.726665 69.325005
-4.6847801 4.7232561 69.275002
-4.5314479 4.7215509 69.250008
-4.3782258 4.7198458 69.224998
-4.2266402 4.7198458 69.224998
-4.0765262 4.7215509 69.250008
-3.9277191 4.7249599 69.300003
-3.7773321 4.726665 69.325005
-3.6281409 4.7300739 69.375
-3.4787331 4.7334828 69.425003
-3.3279071 4.7351871 69.450005
-3.1781149 4.738596 69.500008
-3.0281031 4.7420049 69.550003
-2.8778729 4.7454138 69.600006
-2.7274239 4.7488241 69.650002
-2.576756 4.752233 69.700005
-2.426739 4.7573462 69.775002
-2.2763929 4.7624602 69.850006
-2.127238 4.7709818 69.974998
-6.2576852 4.918787 69.900009
-6.0958872 4.9117508 69.800003
-5.936656 4.9064732 69.724998
-5.7777538 4.901195 69.650002
-5.6212001 4.8976769 69.600006
-5.4648638 4.8941579 69.550003
-5.3087468 4.8906398 69.500008
-5.1509948 4.8853631 69.425003
-4.9953709 4.881844 69.375
-4.8382201 4.8765659 69.300003
-4.6830888 4.8730478 69.250008
-4.5281758 4.8695288 69.200005
-4.3750629 4.8677702 69.175003
-4.223588 4.8677702 69.175003
-4.0735831 4.8695288 69.200005
-3.9234681 4.8712878 69.224998
-3.7732451 4.8730478 69.250008
-3.6229119 4.8748069 69.275002
-3.473722 4.878325 69.325005
-3.3231151 4.880085 69.350006
-3.173542 4.8836031 69.400002
-3.0237491 4.8871222 69.450005
-2.873739 4.8906398 69.500008
-2.7235079 4.8941579 69.550003
-2.5730591 4.8976769 69.600006
-2.4223909 4.901195 69.650002
-2.2723191 4.9064732 69.724998
-2.121918 4.9117508 69.800003
-1.9726 4.920547 69.925003
-6.5685081 5.0753341 69.950005
-6.4084558 5.0698919 69.875
-6.244256 5.060822 69.750008
-6.0871539 5.0571952 69.700005
-5.928143 5.051753 69.625
-5.771533 5.0481248 69.575005
-5.6151419 5.044497 69.525002
-5.4609361 5.0426841 69.500008
-5.3049278 5.0390558 69.450005
-5.1491389 5.035428 69.400002
-4.9935708 5.0317998 69.350006
-4.8364749 5.0263591 69.275002
-4.6813979 5.0227299 69.224998
-4.5265412 5.0191031 69.175003
-4.3734822 5.0172882 69.150002
-4.2220612 5.0172882 69.150002
-4.0706401 5.0172882 69.150002
-3.920635 5.0191031 69.175003
-3.7691591 5.0191031 69.175003
-3.618989 5.020916 69.200005
-3.467458 5.020916 69.200005
-3.3183229 5.0245452 69.250008
-3.1678259 5.0263591 69.275002
-3.018307 5.0299859 69.325005
-2.8685701 5.0336142 69.375
-2.7186129 5.0372419 69.425003
-2.5684381 5.0408702 69.474998
-2.4189129 5.0463109 69.550003
-2.268245 5.0499392 69.600006
-2.1188779 5.0571952 69.700005
-1.9690731 5.0644498 69.800003
-1.819481 5.0735202 69.925003
-6.5544219 5.2171502 69.800003
-6.3946991 5.211545 69.724998
-6.2353039 5.2059379 69.650002
-6.0784211 5.2022009 69.600006
-5.9217558 5.1984639 69.550003
-5.7653108 5.1947269 69.500008
-5.611104 5.1928582 69.474998
-5.457006 5.19099 69.450005
-5.303019 5.1891208 69.425003
-5.147285 5.1853838 69.375
-4.9917712 5.1816468 69.325005
-4.8364749 5.1779089 69.275002
-4.6813979 5.1741719 69.224998
-4.5265412 5.170435 69.175003
-4.3734822 5.1685662 69.150002
-4.2220612 5.1685662 69.150002
-4.0691681 5.166698 69.125
-3.9178009 5.166698 69.125
-3.766434 5.166698 69.125
-3.615067 5.166698 69.125
-3.4624479 5.1648288 69.100006
-3.3123331 5.166698 69.125
-3.1621089 5.1685662 69.150002
-3.0128651 5.1723042 69.200005
-2.8634009 5.1760411 69.250008
-2.7137179 5.1797781 69.300003
-2.5647409 5.1853838 69.375
-2.414566 5.1891208 69.425003
-2.264986 5.1947269 69.500008
-2.1158381 5.2022009 69.600006
-1.966252 5.2096758 69.700005
-1.816228 5.2171502 69.800003
-1.666362 5.2264929 69.925003
-6.716877 5.3775439 69.900009
-6.545033 5.3621569 69.700005
-6.3878212 5.3583102 69.650002
-6.22859 5.352541 69.575005
-6.0718708 5.3486938 69.525002
-5.9175 5.3467708 69.500008
-5.7611642 5.3429241 69.450005
-5.6090851 5.3429241 69.450005
-5.4550419 5.341001 69.425003
-5.3011079 5.339077 69.400002
-5.147285 5.3371539 69.375
-4.9917712 5.3333082 69.325005
-4.8364749 5.3294621 69.275002
-4.6830888 5.327538 69.250008
-4.5281758 5.3236909 69.200005
-4.3750629 5.3217678 69.175003
-4.2205348 5.3179221 69.125
-4.0676961 5.3159981 69.100006
-3.9149671 5.314075 69.075005
-3.762347 5.312151 69.050003
-3.6098371 5.3102279 69.025002
-3.458689 5.3102279 69.025002
-3.306344 5.3083048 69.000008
-3.156394 5.3102279 69.025002
-3.0063341 5.312151 69.050003
-2.857199 5.3159981 69.100006
-2.707844 5.3198452 69.150002
-2.5601201 5.327538 69.250008
-2.411088 5.3333082 69.325005
-2.2617271 5.339077 69.400002
-2.112798 5.3467708 69.500008
-1.963431 5.354465 69.600006
-1.8136261 5.3621569 69.700005
-1.663383 5.3698511 69.800003
-1.512702 5.3775439 69.900009
-1.361097 5.3833141 69.974998
-6.7000599 5.5166159 69.724998
-6.5379901 5.5087051 69.625
-6.3809419 5.5047488 69.575005
-6.224113 5.500793 69.525002
-6.0675039 5.4968371 69.474998
-5.9132419 5.4948592 69.450005
-5.7590899 5.4928799 69.425003
-5.6070662 5.4928799 69.425003
-5.4530778 5.4909019 69.400002
-5.2991991 5.488925 69.375
-5.147285 5.488925 69.375
-4.9935708 5.4869471 69.350006
-4.8382201 5.4829912 69.300003
-4.6830888 5.4790349 69.250008
-4.5281758 5.4750791 69.200005
-4.3750629 5.4731011 69.175003
-4.2205348 5.4691439 69.125
-4.0662251 5.465189 69.075005
-3.912133 5.4612331 69.025002
-3.758261 5.4572759 68.974998
-3.6059151 5.4552989 68.950005
-3.4536791 5.453321 68.925003
-3.3015521 5.4513431 68.900002
-3.1506779 5.4513431 68.900002
-2.9998031 5.4513431 68.900002
-2.8499629 5.453321 68.925003
-2.7019711 5.4592552 69.000008
-2.5536511 5.465189 69.075005
-2.4058709 5.4731011 69.175003
-2.2584679 5.4829912 69.300003
-2.1097579 5.4909019 69.400002
-1.96061 5.4988151 69.500008
-1.810374 5.5047488 69.575005
-1.660404 5.512661 69.675003
-1.509997 5.5205731 69.775002
-1.359152 5.5284839 69.875
-1.2078691 5.536396 69.974998
-6.8699412 5.6833811 69.900009
-6.6952562 5.6650872 69.675003
-6.5356431 5.658989 69.600006
-6.3786492 5.654923 69.550003
-6.2196369 5.6488252 69.474998
-6.06532 5.6467929 69.450005
-5.9111142 5.6447601 69.425003
-5.7570162 5.6427269 69.400002
-5.6050472 5.6427269 69.400002
-5.4511132 5.6406951 69.375
-5.2991991 5.6406951 69.375
-5.147285 5.6406951 69.375
-4.9935708 5.6386619 69.350006
-4.8399658 5.6366301 69.325005
-4.6847801 5.6325641 69.275002
-4.5298119 5.6284981 69.224998
-4.3734822 5.6223998 69.150002
-4.219008 5.6183348 69.100006
-4.063282 5.612237 69.025002
-3.9092989 5.608171 68.974998
-3.755537 5.6041059 68.925003
-3.6019931 5.6000409 68.875
-3.448668 5.5959749 68.824997
-3.2967601 5.5939431 68.800003
-3.1461051 5.5939431 68.800003
-2.9954491 5.5939431 68.800003
-2.844794 5.5939431 68.800003
-2.6960969 5.5980091 68.850006
-2.548105 5.6041059 68.925003
-2.4006541 5.612237 69.025002
-2.2535801 5.6223998 69.150002
-2.105958 5.6325641 69.275002
-1.9570839 5.6406951 69.375
-1.807771 5.6488252 69.474998
-1.658021 5.6569571 69.575005
-1.507833 5.6650872 69.675003
-1.3572069 5.6732178 69.775002
-1.206143 5.6813478 69.875
-1.053887 5.6854138 69.925003
-6.8551989 5.8237758 69.750008
-6.692853 5.8154259 69.650002
-6.5332952 5.809165 69.575005
-6.3763571 5.8049889 69.525002
-6.2196369 5.8008151 69.474998
-6.063138 5.7966399 69.425003
-5.9089851 5.7945518 69.400002
-5.7570162 5.7945518 69.400002
-5.6030278 5.7924652 69.375
-5.4511132 5.7924652 69.375
-5.2991991 5.7924652 69.375
-5.1454301 5.7903781 69.350006
-4.9935708 5.7903781 69.350006
-4.8399658 5.788291 69.325005
-4.6847801 5.7841158 69.275002
-4.5281758 5.777854 69.200005
-4.371901 5.7715921 69.125
-4.2159548 5.7653289 69.050003
-4.060338 5.7590671 68.974998
-3.9050479 5.7528052 68.900002
-3.7514501 5.748631 68.850006
-3.5980711 5.7444558 68.800003
-3.44491 5.7402811 68.750008
-3.2931659 5.738194 68.724998
-3.1426749 5.738194 68.724998
-2.991096 5.7361059 68.700005
-2.8416929 5.738194 68.724998
-2.6921811 5.7402811 68.750008
-2.543484 5.7444558 68.800003
-2.395437 5.7507181 68.875
-2.248692 5.7611551 69.000008
-2.1021581 5.7736788 69.150002
-1.954263 5.7841158 69.275002
-1.805169 5.7924652 69.375
-1.655638 5.8008151 69.474998
-1.505669 5.809165 69.575005
-1.355262 5.8175139 69.675003
-1.2048481 5.82795 69.800003
-1.052757 5.8321261 69.850006
-7.0179811 5.9849348 69.850006
-6.8527422 5.9742241 69.724998
-6.692853 5.9677982 69.650002
-6.5332952 5.9613719 69.575005
-6.3763571 5.957088 69.525002
-6.2196369 5.9528041 69.474998
-6.063138 5.9485202 69.425003
-5.9089851 5.9463768 69.400002
-5.7549419 5.9442348 69.375
-5.6030278 5.9442348 69.375
-5.4491501 5.9420929 69.350006
-5.2972898 5.9420929 69.350006
-5.1454301 5.9420929 69.350006
-4.9917712 5.9399509 69.325005
-4.8382201 5.937809 69.300003
-4.6830888 5.9335251 69.250008
-4.5265412 5.9270992 69.175003
-4.3687391 5.9185309 69.075005
-4.2113762 5.9099622 68.974998
-4.054451 5.9013939 68.875
-3.9007981 5.89711 68.824997
-3.746001 5.8906841 68.750008
-3.5941479 5.8885412 68.724998
-3.442405 5.8864002 68.700005
-3.290771 5.8842578 68.675003
-3.139246 5.8821149 68.650002
-2.988919 5.8821149 68.650002
-2.8385921 5.8821149 68.650002
-2.689244 5.8842578 68.675003
-2.5407109 5.8885412 68.724998
-2.3928289 5.894968 68.800003
-2.2454331 5.9035358 68.900002
-2.099118 5.916389 69.050003
-1.952147 5.9292412 69.200005
-1.803218 5.937809 69.300003
-1.653851 5.9463768 69.400002
-1.504046 5.954946 69.500008
-1.353803 5.9635139 69.600006
-1.203554 5.9742241 69.724998
-1.051627 5.978508 69.775002
-7.173501 6.1399398 69.875
-7.0104461 6.1311541 69.775002
-6.8502851 6.1245632 69.700005
-6.6904521 6.1179729 69.625
-6.5309472 6.111382 69.550003
-6.374064 6.1069889 69.500008
-6.2196369 6.1047921 69.474998
-6.063138 6.100399 69.425003
-5.9089851 6.0982022 69.400002
-5.7549419 6.096005 69.375
-5.6010079 6.0938091 69.350006
-5.447185 6.0916119 69.325005
-5.2953801 6.0916119 69.325005
-5.1417198 6.0894151 69.300003
-4.9881701 6.0872192 69.275002
-4.8347292 6.085022 69.250008
-4.679708 6.0806279 69.200005
-4.5216331 6.0718408 69.100006
-4.3624139 6.0608568 68.974998
-4.2052698 6.0520701 68.875
-4.048564 6.043283 68.775002
-3.8951299 6.0388899 68.724998
-3.741915 6.0344958 68.675003
-3.5902259 6.032299 68.650002
-3.4386461 6.0301032 68.625
-3.2883739 6.0301032 68.625
-3.138103 6.0301032 68.625
-2.986742 6.0279059 68.600006
-2.837558 6.0301032 68.625
-2.6872859 6.0301032 68.625
-2.5388629 6.0344958 68.675003
-2.3910899 6.0410872 68.750008
-2.243803 6.0498738 68.850006
-2.096838 6.0608568 68.974998
-1.950031 6.074038 69.125
-1.801917 6.085022 69.250008
-1.6526591 6.0938091 69.350006
-1.502964 6.1025958 69.450005
-1.3528301 6.111382 69.550003
-1.2022589 6.1201701 69.650002
-1.050496 6.1245632 69.700005
-7.4875488 6.2995591 69.950005
-7.3265109 6.2928038 69.875
-7.165802 6.2860498 69.800003
-7.0029101 6.2770438 69.700005
-6.8453698 6.272541 69.650002
-6.6880488 6.2680392 69.600006
-6.5309472 6.263535 69.550003
-6.374064 6.2590332 69.500008
-6.2173991 6.25453 69.450005
-6.063138 6.2522779 69.425003
-5.906857 6.2477751 69.375
-5.7528682 6.2455239 69.350006
-5.596971 6.2410212 69.300003
-5.4432559 6.23877 69.275002
-5.2915611 6.23877 69.275002
-5.138011 6.2365179 69.250008
-4.98457 6.2342672 69.224998
-4.829493 6.229764 69.175003
-4.6746349 6.2252612 69.125
-4.51509 6.214004 69.000008
-4.3545079 6.2004948 68.850006
-4.197639 6.1914902 68.750008
-4.0426779 6.1847348 68.675003
-3.889462 6.180232 68.625
-3.737828 6.1779809 68.600006
-3.587611 6.1779809 68.600006
-3.436141 6.1757288 68.574997
-3.2859781 6.1757288 68.574997
-3.1358161 6.1757288 68.574997
-2.9856529 6.1757288 68.574997
-2.836524 6.1779809 68.600006
-2.686307 6.1779809 68.600006
-2.5379381 6.1824832 68.650002
-2.3893509 6.186986 68.700005
-2.242173 6.195992 68.800003
-2.0960779 6.2095008 68.950005
-1.948621 6.220758 69.075005
-1.800616 6.2320161 69.200005
-1.652064 6.2432728 69.325005
-1.502423 6.2522779 69.425003
-1.352344 6.2612839 69.525002
-1.201396 6.2680392 69.600006
-1.049742 6.272541 69.650002
-7.7938948 6.4525871 69.950005
-7.6352611 6.4479752 69.900009
-7.4768448 6.4433632 69.850006
-7.3160262 6.4364438 69.775002
-7.1555362 6.4295259 69.700005
-6.9978862 6.4249129 69.650002
-6.840456 6.420301 69.600006
-6.6832452 6.415689 69.550003
-6.5286002 6.413383 69.525002
-6.3717709 6.408771 69.474998
-6.2173991 6.4064651 69.450005
-6.0609541 6.4018521 69.400002
-5.9047279 6.3972402 69.350006
-5.7487211 6.3926268 69.300003
-5.5949512 6.3903208 69.275002
-5.4393268 6.3857088 69.224998
-5.2858319 6.3834028 69.200005
-5.1324458 6.3810968 69.175003
-4.9773688 6.3764849 69.125
-4.8242569 6.3741789 69.100006
-4.666183 6.364954 69.000008
-4.5036368 6.3488111 68.824997
-4.3450222 6.3372812 68.700005
-4.1900058 6.3303618 68.625
-4.0367908 6.3257489 68.574997
-3.885211 6.3234429 68.550003
-3.733742 6.321137 68.525002
-3.583689 6.321137 68.525002
-3.433636 6.321137 68.525002
-3.284781 6.3234429 68.550003
-3.1346731 6.3234429 68.550003
-2.984565 6.3234429 68.550003
-2.8354909 6.3257489 68.574997
-2.686307 6.3280559 68.600006
-2.537014 6.3303618 68.625
-2.3884809 6.3349748 68.675003
-2.241359 6.3441982 68.775002
-2.094558 6.3557291 68.900002
-1.947916 6.369566 69.050003
-1.799966 6.3810968 69.175003
-1.651468 6.3926268 69.300003
-1.501882 6.4018521 69.400002
-1.351372 6.408771 69.474998
-1.200533 6.415689 69.550003
-1.0489891 6.420301 69.600006
-7.9442291 6.6032538 69.925003
-7.7855392 6.5985332 69.875
-7.627069 6.593812 69.825005
-7.4688172 6.5890889 69.775002
-7.3081622 6.5820069 69.700005
-7.1478372 6.574924 69.625
-6.9903522 6.5702028 69.575005
-6.8330851 6.5654812 69.525002
-6.678441 6.5631199 69.500008
-6.5239038 6.5607591 69.474998
-6.3694782 6.5583992 69.450005
-6.212923 6.5536771 69.400002
-6.0565872 6.548955 69.350006
-5.9004712 6.5442338 69.300003
-5.7445731 6.5395131 69.250008
-5.5888939 6.53479 69.200005
-5.4353991 6.5324302 69.175003
-5.2801032 6.5277081 69.125
-5.1268811 6.5253472 69.100006
-4.9719691 6.5206251 69.050003
-4.8155298 6.5135431 68.974998
-4.6543469 6.4993782 68.824997
-4.4938231 6.4852128 68.675003
-4.338697 6.4781308 68.600006
-4.1854272 6.4734092 68.550003
-4.0323758 6.4686871 68.500008
-3.88096 6.4663262 68.474998
-3.7310171 6.4663262 68.474998
-3.581074 6.4663262 68.474998
-3.4311299 6.4663262 68.474998
-3.2823851 6.4686871 68.500008
-3.1335299 6.4710479 68.525002
-2.9834759 6.4710479 68.525002
-2.8344569 6.4734092 68.550003
-2.685328 6.475769 68.574997
-2.5360899 6.4781308 68.600006
-2.3876121 6.482852 68.650002
-2.2405441 6.4922962 68.750008
-2.0937979 6.5040998 68.875
-1.946505 6.5159039 69.000008
-1.798664 6.5277081 69.125
-1.6502759 6.5395131 69.250008
-1.5008 6.548955 69.350006
-1.350885 6.5583992 69.450005
-1.19967 6.5631199 69.500008
-1.0482351 6.567842 69.550003
-0.89626002 6.5702028 69.575005
-7.9385481 6.7513971 69.875
-7.782753 6.748981 69.850006
-7.6216059 6.741735 69.775002
-7.4607878 6.734488 69.700005
-7.3002992 6.727242 69.625
-7.1401372 6.719995 69.550003
-6.9828162 6.7151642 69.500008
-6.8281708 6.7127481 69.474998
-6.673635 6.7103329 69.450005
-6.5192089 6.7079172 69.425003
-6.364892 6.705502 69.400002
-6.2106848 6.7030859 69.375
-6.0544038 6.6982551 69.325005
-5.896214 6.691009 69.250008
-5.7404251 6.6861782 69.200005
-5.584856 6.6813459 69.150002
-5.4295049 6.6765161 69.100006
-5.274374 6.6716838 69.050003
-5.119462 6.666853 69.000008
-4.9647679 6.6620221 68.950005
-4.8068032 6.65236 68.850006
-4.6475849 6.6402822 68.724998
-4.490551 6.63062 68.625
-4.335535 6.623374 68.550003
-4.182374 6.6185431 68.500008
-4.0294328 6.6137118 68.450005
-3.8781271 6.6112971 68.425003
-3.7282929 6.6112971 68.425003
-3.578459 6.6112971 68.425003
-3.429877 6.6137118 68.450005
-3.2811871 6.616127 68.474998
-3.132386 6.6185431 68.500008
-2.982388 6.6185431 68.500008
-2.8334229 6.6209579 68.525002
-2.6843491 6.623374 68.550003
-2.535166 6.6257901 68.574997
-2.3867421 6.63062 68.625
-2.238914 6.637867 68.700005
-2.092278 6.6499438 68.824997
-1.9450949 6.6620221 68.950005
-1.797363 6.6740999 69.075005
-1.649085 6.6861782 69.200005
-1.499718 6.6958399 69.300003
-1.349913 6.705502 69.400002
-1.198807 6.7103329 69.450005
-1.047482 6.7151642 69.500008
-0.89561599 6.7175798 69.525002
-7.935708 6.9017911 69.850006
-7.7771821 6.8968511 69.800003
-7.6161442 6.8894401 69.724998
-7.4527602 6.879559 69.625
-7.2924352 6.872148 69.550003
-7.135004 6.867208 69.500008
-6.9777918 6.862268 69.450005
-6.823256 6.859797 69.425003
-6.6712341 6.859797 69.425003
-6.516861 6.857327 69.400002
-6.3625998 6.854857 69.375
-6.2062092 6.8499169 69.325005
-6.0500369 6.8449759 69.275002
-5.894084 6.840035 69.224998
-5.7362771 6.8326249 69.150002
-5.5808182 6.8276839 69.100006
-5.4255772 6.8227439 69.050003
-5.270555 6.8178029 69.000008
-5.1138968 6.8103929 68.925003
-4.9575682 6.8029819 68.850006
-4.8015671 6.7955718 68.775002
-4.6442041 6.7856908 68.675003
-4.487278 6.7758098 68.574997
-4.3339529 6.7708688 68.525002
-4.1808481 6.7659292 68.474998
-4.0294328 6.7634592 68.450005
-3.8781271 6.7609892 68.425003
-3.7282929 6.7609892 68.425003
-3.578459 6.7609892 68.425003
-3.4286251 6.7609892 68.425003
-3.279989 6.7634592 68.450005
-3.131243 6.7659292 68.474998
-2.9812989 6.7659292 68.474998
-2.8323901 6.7683988 68.500008
-2.6833701 6.7708688 68.525002
-2.5342419 6.7733402 68.550003
-2.3867421 6.7807498 68.625
-2.2381001 6.7856908 68.675003
-2.0907581 6.7955718 68.775002
-1.943684 6.8079219 68.900002
-1.7954119 6.8178029 69.000008
-1.647298 6.8301539 69.125
-1.498636 6.8425059 69.250008
-1.348454 6.8499169 69.325005
-1.197944 6.857327 69.400002
-1.046728 6.862268 69.450005
-0.89497203 6.864738 69.474998
-7.930027 7.0495501 69.800003
-7.7716112 7.0445008 69.750008
-7.6106839 7.0369258 69.675003
-7.4474082 7.0268259 69.575005
-7.2871919 7.0192518 69.500008
-7.1298709 7.0142021 69.450005
-6.9752798 7.0116768 69.425003
-6.8207989 7.009151 69.400002
-6.666429 7.0066271 69.375
-6.514514 7.0066271 69.375
-6.3603072 7.0041022 69.350006
-6.2039709 6.999053 69.300003
-6.0478539 6.9940019 69.250008
-5.8898282 6.9864278 69.175003
-5.7321301 6.9788532 69.100006
-5.5767789 6.973803 69.050003
-5.421648 6.9687538 69.000008
-5.2648258 6.9611788 68.925003
-5.110188 6.9561291 68.875
-4.953968 6.948554 68.800003
-4.7980762 6.940979 68.724998
-4.6425128 6.933404 68.650002
-4.487278 6.9258289 68.574997
-4.3339529 6.9207802 68.525002
-4.182374 6.9182549 68.500008
-4.0309048 6.91573 68.474998
-3.88096 6.91573 68.474998
-3.729655 6.9132051 68.450005
-3.579766 6.9132051 68.450005
-3.429877 6.9132051 68.450005
-3.279989 6.9132051 68.450005
-3.1301 6.9132051 68.450005
-2.9812989 6.91573 68.474998
-2.8323901 6.9182549 68.500008
-2.6833701 6.9207802 68.525002
-2.5342419 6.923305 68.550003
-2.3858731 6.9283552 68.600006
-2.2381001 6.9359288 68.675003
-2.089998 6.9435039 68.750008
-1.942274 6.9536042 68.850006
-1.794111 6.9637041 68.950005
-1.646106 6.9763279 69.075005
-1.497013 6.9864278 69.175003
-1.347481 6.9965272 69.275002
-1.197081 7.0041022 69.350006
-1.046351 7.0116768 69.425003
-0.89464998 7.0142021 69.450005
-8.0828714 7.20225 69.800003
-7.924346 7.1970911 69.750008
-7.7660398 7.1919308 69.700005
-7.6052222 7.1841931 69.625
-7.4447322 7.176455 69.550003
-7.2845712 7.168715 69.474998
-7.127305 7.1635571 69.425003
-6.9702568 7.1583972 69.375
-6.8183422 7.1583972 69.375
-6.666429 7.1583972 69.375
-6.512167 7.155818 69.350006
-6.3580141 7.1532378 69.325005
-6.2017331 7.1480789 69.275002
-6.045671 7.14292 69.224998
-5.8876991 7.13518 69.150002
-5.7300558 7.1274419 69.075005
-5.572742 7.1197028 69.000008
-5.4177189 7.1145439 68.950005
-5.2610059 7.1068048 68.875
-5.1064768 7.101645 68.824997
-4.950367 7.0939069 68.750008
-4.7963309 7.088748 68.700005
-4.6425128 7.0835881 68.650002
-4.488915 7.0784292 68.600006
-4.3371158 7.0758491 68.574997
-4.1854272 7.0732698 68.550003
-4.0353189 7.0732698 68.550003
-3.883795 7.0706902 68.525002
-3.733742 7.0706902 68.525002
-3.582381 7.0681109 68.500008
-3.4311299 7.0655308 68.474998
-3.2811871 7.0655308 68.474998
-3.131243 7.0655308 68.474998
-2.9812989 7.0655308 68.474998
-2.8323901 7.0681109 68.500008
-2.6843491 7.0732698 68.550003
-2.535166 7.0758491 68.574997
-2.3876121 7.0835881 68.650002
-2.238914 7.088748 68.700005
-2.0907581 7.096487 68.775002
-1.942274 7.1042261 68.850006
-1.794111 7.1145439 68.950005
-1.644914 7.122283 69.025002
-1.495931 7.1326008 69.125
-1.346509 7.14292 69.224998
-1.196649 7.1532378 69.325005
-1.045975 7.1609759 69.400002
-0.894328 7.1635571 69.425003
-8.0770817 7.3496828 69.750008
-7.9186659 7.3444142 69.700005
-7.760469 7.3391452 69.650002
-7.599761 7.331243 69.575005
-7.4393802 7.323339 69.500008
-7.2793279 7.3154359 69.425003
-7.1247382 7.3128009 69.400002
-6.9677448 7.3075328 69.350006
-6.815886 7.3075328 69.350006
-6.6640258 7.3075328 69.350006
-6.512167 7.3075328 69.350006
-6.3580141 7.3048992 69.325005
-6.2017331 7.2996302 69.275002
-6.045671 7.2943611 69.224998
-5.885571 7.2838249 69.125
-5.727982 7.2759218 69.050003
-5.5707221 7.2680192 68.974998
-5.4137902 7.2601161 68.900002
-5.2571869 7.252213 68.824997
-5.1027679 7.246944 68.775002
-4.9485669 7.2416759 68.724998
-4.7945862 7.2364082 68.675003
-4.6425128 7.2337732 68.650002
-4.490551 7.2311392 68.625
-4.3402781 7.2311392 68.625
-4.1900058 7.2311392 68.625
-4.0397348 7.2311392 68.625
-3.889462 7.2311392 68.625
-3.737828 7.2285051 68.600006
-3.586303 7.2258701 68.574997
-3.4348879 7.2232361 68.550003
-3.2835829 7.220602 68.525002
-3.1335299 7.220602 68.525002
-2.9834759 7.220602 68.525002
-2.8344569 7.2232361 68.550003
-2.685328 7.2258701 68.574997
-2.537014 7.2311392 68.625
-2.3893509 7.2390409 68.700005
-2.241359 7.246944 68.775002
-2.092278 7.252213 68.824997
-1.943684 7.2601161 68.900002
-1.794111 7.2653852 68.950005
-1.644914 7.2732868 69.025002
-1.495931 7.2838249 69.125
-1.346509 7.2943611 69.224998
-1.196649 7.3048992 69.325005
-1.045975 7.3128009 69.400002
-0.89464998 7.3180699 69.450005
-8.0712919 7.4968939 69.700005
-7.9158258 7.494206 69.675003
-7.7576842 7.4888272 69.625
-7.5970292 7.4807611 69.550003
-7.4367042 7.472693 69.474998
-7.2767062 7.4646258 69.400002
-7.1196051 7.459249 69.350006
-6.9652328 7.4565601 69.325005
-6.8134279 7.4565601 69.325005
-6.6640258 7.459249 69.350006
-6.512167 7.459249 69.350006
-6.3580141 7.4565601 69.325005
-6.2017331 7.4511819 69.275002
-6.043488 7.4431152 69.200005
-5.885571 7.4350481 69.125
-5.7259078 7.4242921 69.025002
-5.5666838 7.4135361 68.925003
-5.409862 7.4054689 68.850006
-5.2533679 7.3974018 68.775002
-5.0990582 7.392024 68.724998
-4.9467669 7.3893352 68.700005
-4.7945862 7.3866458 68.675003
-4.6442041 7.3866458 68.675003
-4.4938231 7.3866458 68.675003
-4.3450222 7.3893352 68.700005
-4.1961122 7.392024 68.724998
-4.0456209 7.392024 68.724998
-3.8951299 7.392024 68.724998
-3.7432771 7.3893352 68.700005
-3.5915329 7.3866458 68.675003
-3.4386461 7.381268 68.625
-3.2871759 7.3785801 68.600006
-3.1369591 7.3785801 68.600006
-2.986742 7.3785801 68.600006
-2.836524 7.3785801 68.600006
-2.6882651 7.3839569 68.650002
-2.543484 7.4000912 68.800003
-2.395437 7.4081578 68.875
-2.2446179 7.4081578 68.875
-2.0953181 7.4135361 68.925003
-1.9457999 7.4189129 68.974998
-1.7954119 7.4216032 69.000008
-1.64551 7.426981 69.050003
-1.495931 7.4350481 69.125
-1.346509 7.4458032 69.224998
-1.196649 7.4565601 69.325005
-1.046351 7.4673162 69.425003
-0.89497203 7.472693 69.474998
-0.74337298 7.4780722 69.525002
-8.0683966 7.6466322 69.675003
-7.9129848 7.643888 69.650002
-7.7548981 7.638401 69.600006
-7.5942979 7.6301699 69.525002
-7.4340281 7.6219392 69.450005
-7.274085 7.613708 69.375
-7.1170378 7.6082211 69.325005
-6.9627209 7.6054769 69.300003
-6.8109708 7.6054769 69.300003
-6.661624 7.6082211 69.325005
-6.509819 7.6082211 69.325005
-6.355721 7.6054769 69.300003
-6.2017331 7.6027341 69.275002
-6.043488 7.594502 69.200005
-5.8834419 7.5835271 69.100006
-5.7217598 7.569808 68.974998
-5.562645 7.5588341 68.875
-5.4039688 7.5478601 68.775002
-5.2495489 7.5423722 68.724998
-5.0953479 7.5368848 68.675003
-4.9449668 7.5368848 68.675003
-4.7945862 7.5368848 68.675003
-4.6442041 7.5368848 68.675003
-4.4970942 7.5423722 68.724998
-4.3481841 7.5451159 68.750008
-4.1991649 7.5478601 68.775002
-4.050036 7.5506029 68.800003
-3.8993809 7.5506029 68.800003
-3.7487259 7.5506029 68.800003
-3.5967629 7.5478601 68.775002
-3.4436569 7.5423722 68.724998
-3.2931659 7.5423722 68.724998
-3.1415319 7.539629 68.700005
-2.991096 7.539629 68.700005
-2.8478949 7.5588341 68.875
-2.7098031 7.594502 69.200005
-2.561044 7.6027341 69.275002
-2.408479 7.5999889 69.250008
-2.2535801 7.589015 69.150002
-2.0998781 7.5807838 69.075005
-1.947916 7.5780401 69.050003
-1.797363 7.5807838 69.075005
-1.6467021 7.5835271 69.100006
-1.497013 7.5917592 69.175003
-1.346995 7.5999889 69.250008
-1.197081 7.6109638 69.350006
-1.046728 7.6219392 69.450005
-0.89561599 7.6301699 69.525002
-0.74417502 7.638401 69.600006
-8.0683966 7.799058 69.675003
-7.9101448 7.7934608 69.625
-7.7521129 7.7878661 69.575005
-7.591568 7.77947 69.500008
-7.4286761 7.7682762 69.400002
-7.2688432 7.759882 69.325005
-7.1119051 7.7542839 69.275002
-6.9551849 7.7486868 69.224998
-6.8060579 7.7514858 69.250008
-6.654417 7.7514858 69.250008
-6.5051241 7.7542839 69.275002
-6.3534279 7.7542839 69.275002
-6.1972561 7.7486868 69.224998
-6.0391202 7.7402921 69.150002
-5.8791852 7.7290988 69.050003
-5.715539 7.7123079 68.900002
-5.5565882 7.7011151 68.800003
-5.4000401 7.6927199 68.724998
-5.2457299 7.6871238 68.675003
-5.093493 7.6843252 68.650002
-4.9431672 7.6843252 68.650002
-4.79284 7.6843252 68.650002
-4.645895 7.6899209 68.700005
-4.4970942 7.6927199 68.724998
-4.3497648 7.6983171 68.775002
-4.2022181 7.7039142 68.824997
-4.052979 7.7067118 68.850006
-3.903631 7.7095108 68.875
-3.7514501 7.7067118 68.850006
-3.6006849 7.7067118 68.850006
-3.448668 7.7039142 68.824997
-3.2979579 7.7039142 68.824997
-3.148391 7.7067118 68.850006
-3.0019801 7.717906 68.950005
-2.8603001 7.7430911 69.175003
-2.7137179 7.757082 69.300003
-2.5647409 7.7654781 69.375
-2.412827 7.7654781 69.375
-2.2592831 7.759882 69.325005
-2.1044381 7.7486868 69.224998
-1.951442 7.7430911 69.175003
-1.799315 7.7402921 69.150002
-1.647893 7.7402921 69.150002
-1.4975539 7.7458901 69.200005
-1.347481 7.7542839 69.275002
-1.197512 7.7654781 69.375
-1.047482 7.77947 69.500008
-0.89658201 7.7906628 69.600006
-0.74470901 7.7962599 69.650002
-0.59346801 7.8130498 69.800003
-8.0683966 7.9514852 69.675003
-7.9101448 7.9457788 69.625
-7.7521129 7.940073 69.575005
-7.5888371 7.9286599 69.474998
-7.4260001 7.9172478 69.375
-7.2635999 7.9058371 69.275002
-7.1042051 7.8972769 69.200005
-6.9476509 7.891571 69.150002
-6.7962289 7.891571 69.150002
-6.6472101 7.894424 69.175003
-6.4980812 7.8972769 69.200005
-6.34655 7.8972769 69.200005
-6.19278 7.894424 69.175003
-6.0325708 7.8830118 69.075005
-5.8706698 7.8687472 68.950005
-5.707243 7.8516278 68.800003
-5.548512 7.8402162 68.700005
-5.394146 7.8345098 68.650002
-5.2400012 7.828804 68.600006
-5.0897841 7.828804 68.600006
-4.9395671 7.828804 68.600006
-4.79284 7.8345098 68.650002
-4.6442041 7.8373628 68.675003
-4.4987302 7.845922 68.750008
-4.351346 7.8516278 68.800003
-4.2037439 7.8573351 68.850006
-4.054451 7.860188 68.875
-3.9050479 7.86304 68.900002
-3.754174 7.86304 68.900002
-3.6033001 7.86304 68.900002
-3.452426 7.86304 68.900002
-3.3027501 7.8658938 68.925003
-3.1541071 7.8716002 68.974998
-3.0074229 7.8830118 69.075005
-2.8623669 7.9001298 69.224998
-2.715677 7.9143958 69.350006
-2.565665 7.9201012 69.400002
-2.414566 7.922955 69.425003
-2.2617271 7.9201012 69.400002
-2.108238 7.9143958 69.350006
-1.954263 7.9058371 69.275002
-1.801266 7.9001298 69.224998
-1.649085 7.8972769 69.200005
-1.498095 7.9001298 69.224998
-1.347968 7.908689 69.300003
-1.197944 7.9201012 69.400002
-1.047859 7.9343672 69.525002
-0.89722598 7.9486318 69.650002
-0.745511 7.957191 69.724998
-0.59346801 7.9657502 69.800003
-8.0683966 8.1039114 69.675003
-7.9073048 8.0951881 69.600006
-7.7493272 8.0893726 69.550003
-7.5833759 8.0748339 69.425003
-7.4179721 8.0602951 69.300003
-7.2557368 8.0486641 69.200005
-7.0939388 8.037034 69.100006
-6.937603 8.0312176 69.050003
-6.781487 8.025403 69.000008
-6.6327958 8.0283098 69.025002
-6.4863429 8.0341253 69.075005
-6.337379 8.037034 69.100006
-6.1838279 8.0341253 69.075005
-6.0216541 8.0195866 68.950005
-5.853642 7.996325 68.750008
-5.6947999 7.984694 68.650002
-5.5404348 7.978878 68.600006
-5.3882542 7.9759698 68.574997
-5.2361822 7.973062 68.550003
-5.0860739 7.973062 68.550003
-4.9377661 7.9759698 68.574997
-4.7910948 7.9817858 68.625
-4.6442041 7.9876008 68.675003
-4.4987302 7.996325 68.750008
-4.351346 8.00214 68.800003
-4.2037439 8.0079556 68.850006
-4.055923 8.0137711 68.900002
-3.906466 8.0166798 68.925003
-3.755537 8.0166798 68.925003
-3.6046081 8.0166798 68.925003
-3.454931 8.0195866 68.950005
-3.305146 8.0224943 68.974998
-3.157537 8.0312176 69.050003
-3.009599 8.0399408 69.125
-2.8634009 8.0544796 69.250008
-2.715677 8.0661106 69.350006
-2.5665901 8.0748339 69.425003
-2.4154351 8.0777416 69.450005
-2.2633569 8.0777416 69.450005
-2.1097579 8.0719261 69.400002
-1.955673 8.0632029 69.325005
-1.802567 8.0573883 69.275002
-1.64968 8.0515718 69.224998
-1.498636 8.0544796 69.250008
-1.347968 8.0602951 69.300003
-1.197944 8.0719261 69.400002
-1.047859 8.0864649 69.525002
-0.89754802 8.1039114 69.675003
-0.74577898 8.1126347 69.750008
-0.593894 8.1242657 69.850006
-8.0683966 8.2563381 69.675003
-7.9044652 8.2444887 69.575005
-7.7437558 8.2356014 69.500008
-7.5806451 8.2237501 69.400002
-7.4126201 8.2059755 69.250008
-7.2478728 8.191164 69.125
-7.0862398 8.1793146 69.025002
