ply
format ascii 1.0
comment PCL generated
element vertex 1593
property float x
property float y
property float z
element face 0
element camera 0
property float view_px
property float view_py
property float view_pz
property float x_axisx
property float x_axisy
property float x_axisz
property float y_axisx
property float y_axisy
property float y_axisz
property float z_axisx
property float z_axisy
property float z_axisz
property float focal
property float scalex
property float scaley
property float centerx
property float centery
property int viewportx
property int viewporty
property float k1
property float k2
end_header
-4.0309048 3.020896 68.474998
-3.8781271 3.0186901 68.425003
-3.725569 3.016484 68.375
-3.574537 3.0153821 68.350006
-3.421109 3.012073 68.275002
-3.269207 3.009867 68.225006
-3.1163809 3.0065579 68.150002
-2.9638841 3.0032489 68.075005
-2.8117149 2.9999399 68
-2.658896 2.9955289 67.900002
-2.5074389 2.9922199 67.825005
-2.3571801 2.9900141 67.775002
-5.3980761 3.1811161 68.700005
-5.2495489 3.1822729 68.724998
-5.100914 3.1834309 68.750008
-4.950367 3.1834309 68.750008
-4.7980762 3.1822729 68.724998
-4.6442041 3.1799581 68.675003
-4.490551 3.1776431 68.625
-4.335535 3.17417 68.550003
-4.1808481 3.170697 68.474998
-4.0279608 3.1683819 68.425003
-3.8767099 3.1672239 68.400002
-3.725569 3.1660659 68.375
-3.5732291 3.1637509 68.325005
-3.421109 3.1614361 68.275002
-3.2680089 3.157963 68.200005
-3.1163809 3.155648 68.150002
-2.962795 3.1510179 68.050003
-2.8106811 3.1475451 67.975006
-2.658896 3.1440721 67.900002
-2.508363 3.141757 67.850006
-2.3571801 3.138284 67.775002
-2.2079539 3.137126 67.75
-5.5464931 3.3301971 68.675003
-5.396111 3.3301971 68.675003
-5.2476401 3.331409 68.700005
-5.0972028 3.331409 68.700005
-4.9467669 3.331409 68.700005
-4.7945862 3.3301971 68.675003
-4.6408219 3.3277719 68.625
-4.487278 3.3253479 68.574997
-4.3323731 3.3217111 68.500008
-4.1777949 3.318074 68.425003
-4.0264888 3.3168609 68.400002
-3.875293 3.315649 68.375
-3.7228439 3.3132241 68.325005
-3.5719221 3.312012 68.300003
-3.4198561 3.309588 68.25
-3.2680089 3.307163 68.200005
-3.115238 3.3035259 68.125
-2.962795 3.2998891 68.050003
-2.8106811 3.296252 67.975006
-2.658896 3.2926149 67.900002
-2.508363 3.2901909 67.850006
-2.3580489 3.287766 67.800003
-2.2087691 3.2865541 67.775002
-1.913358 3.2889791 67.825005
-5.6927261 3.4779019 68.625
-5.5424552 3.4779019 68.625
-5.394146 3.4791689 68.650002
-5.2438202 3.4791689 68.650002
-5.093493 3.4791689 68.650002
-4.9431672 3.4791689 68.650002
-4.7910948 3.4779019 68.625
-4.6374412 3.475368 68.574997
-4.4823709 3.4715669 68.500008
-4.3292098 3.469033 68.450005
-4.1762691 3.4664979 68.400002
-4.0235462 3.4639649 68.350006
-3.8724589 3.462698 68.325005
-3.721482 3.461431 68.300003
-3.5706141 3.4601641 68.275002
-3.4186029 3.4576299 68.225006
-3.2668109 3.455096 68.175003
-3.115238 3.4525621 68.125
-2.962795 3.448761 68.050003
-2.8106811 3.4449601 67.975006
-2.6598749 3.442426 67.925003
-2.508363 3.4386251 67.850006
-2.3580489 3.4360909 67.800003
-2.209584 3.4360909 67.800003
-2.061878 3.4373579 67.825005
-1.9147691 3.4398921 67.875
-1.768741 3.4449601 67.975006
-5.6927261 3.628031 68.625
-5.5404348 3.626709 68.600006
-5.3902178 3.626709 68.600006
-5.2400012 3.626709 68.600006
-5.0897841 3.626709 68.600006
-4.9395671 3.626709 68.600006
-4.7876039 3.6253879 68.574997
-4.6340599 3.622745 68.525002
-4.4790988 3.6187789 68.450005
-4.3260479 3.6161361 68.400002
-4.1732159 3.613493 68.350006
-4.0206032 3.6108489 68.300003
-3.869626 3.6095281 68.275002
-3.7187569 3.608206 68.25
-3.5679989 3.606884 68.225006
-3.417351 3.605562 68.200005
-3.2656131 3.6029191 68.150002
-3.114095 3.600276 68.100006
-2.9617071 3.5963111 68.025002
-2.8106811 3.593667 67.975006
-2.6598749 3.5910239 67.925003
-2.5092871 3.5883811 67.875
-2.3589189 3.585737 67.825005
-2.210398 3.585737 67.825005
-2.0633979 3.5883811 67.875
-1.9161789 3.5910239 67.925003
-1.7693909 3.5949891 68
-1.622275 3.598954 68.075005
-5.9025989 3.8167 69.325005
-5.6865048 3.7740321 68.550003
-5.536397 3.7740321 68.550003
-5.384325 3.772655 68.525002
-5.234272 3.772655 68.525002
-5.084219 3.772655 68.525002
-4.934166 3.772655 68.525002
-4.7823682 3.7712791 68.500008
-4.6306791 3.769902 68.474998
-4.4758282 3.7657731 68.400002
-4.322886 3.763021 68.350006
-4.1701632 3.760268 68.300003
-4.0191312 3.7588921 68.275002
-3.8682079 3.757515 68.25
-3.7173951 3.756139 68.225006
-3.5653839 3.753386 68.175003
-3.414845 3.7520101 68.150002
-3.2632179 3.7492571 68.100006
-3.111809 3.7465041 68.050003
-2.960618 3.743751 68
-2.809648 3.740999 67.950005
-2.658896 3.738246 67.900002
-2.5092871 3.7368701 67.875
-2.3597879 3.7354929 67.850006
-2.212028 3.7368701 67.875
-2.064158 3.738246 67.900002
-1.91759 3.7423749 67.975006
-1.7700419 3.7451279 68.025002
-1.622275 3.74788 68.075005
-1.47429 3.750633 68.125
-5.864285 3.942601 68.875
-5.6802831 3.919703 68.474998
-5.5283208 3.918273 68.450005
-5.3784318 3.918273 68.450005
-5.2285428 3.918273 68.450005
-5.0786538 3.918273 68.450005
-4.9287658 3.918273 68.450005
-4.7788768 3.918273 68.450005
-4.6272979 3.916842 68.425003
-4.4741921 3.9139791 68.375
-4.3213038 3.9111171 68.325005
-4.1686368 3.9082551 68.275002
-4.0176592 3.9068241 68.25
-3.865375 3.9039619 68.200005
-3.7146709 3.9025309 68.175003
-3.5627699 3.899668 68.125
-3.4123399 3.8982379 68.100006
-3.2608221 3.895375 68.050003
-3.1095221 3.892513 68
-2.958442 3.8896511 67.950005
-2.808614 3.8882201 67.925003
-2.657917 3.8853581 67.875
-2.5092871 3.8853581 67.875
-2.3606579 3.8853581 67.875
-2.2128429 3.8867891 67.900002
-2.064918 3.8882201 67.925003
-1.918295 3.892513 68
-1.770692 3.895375 68.050003
-1.622871 3.8982379 68.100006
-1.47429 3.899668 68.125
-1.325599 3.9010999 68.150002
-5.832356 4.070991 68.500008
-5.6740618 4.0650482 68.400002
-5.522264 4.0635619 68.375
-5.370575 4.0620761 68.350006
-5.222815 4.0635619 68.375
-5.0730901 4.0635619 68.375
-4.9233651 4.0635619 68.375
-4.7736411 4.0635619 68.375
-4.6222262 4.0620761 68.350006
-4.4709201 4.0605898 68.325005
-4.3197231 4.059104 68.300003
-4.16711 4.0561328 68.25
-4.0161881 4.054647 68.225006
-3.8639579 4.0516758 68.175003
-3.713309 4.05019 68.150002
-3.5614619 4.0472188 68.100006
-3.4098339 4.0442472 68.050003
-3.258425 4.041276 68
-3.1072359 4.0383039 67.950005
-2.9573531 4.036819 67.925003
-2.8065469 4.0338469 67.875
-2.657917 4.0338469 67.875
-2.508363 4.032361 67.850006
-2.3606579 4.0338469 67.875
-2.2128429 4.0353322 67.900002
-2.0656779 4.0383039 67.950005
-1.918295 4.041276 68
-1.770692 4.0442472 68.050003
-1.622275 4.045732 68.075005
-1.473749 4.0472188 68.100006
-1.325112 4.0487041 68.125
-1.175935 4.0487041 68.125
-6.028204 4.2531958 69.025002
-5.8174548 4.210063 68.325005
-5.6657658 4.2085228 68.300003
-5.5141869 4.2069831 68.275002
-5.3646808 4.2069831 68.275002
-5.2151761 4.2069831 68.275002
-5.0675249 4.2085228 68.300003
-4.9179649 4.2085228 68.300003
-4.768405 4.2085228 68.300003
-4.618845 4.2085228 68.300003
-4.467649 4.2069831 68.275002
-4.3165612 4.205442 68.25
-4.1655841 4.2039018 68.225006
-4.0132451 4.2008209 68.175003
-3.862541 4.1992798 68.150002
-3.7105851 4.1961999 68.100006
-3.558847 4.193119 68.050003
-3.4073291 4.1900368 68
-3.2560301 4.1869569 67.950005
-3.104949 4.183876 67.900002
-2.9551761 4.1823349 67.875
-2.8055129 4.1807952 67.850006
-2.6559589 4.1792541 67.825005
-2.5074389 4.1792541 67.825005
-2.3597879 4.1807952 67.850006
-2.2128429 4.183876 67.900002
-2.064918 4.1854172 67.925003
-1.91759 4.1884971 67.975006
-1.7700419 4.1915779 68.025002
-1.62168 4.193119 68.050003
-1.473208 4.1946592 68.075005
-1.32414 4.1946592 68.075005
-1.175504 4.1961999 68.100006
-1.026381 4.1961999 68.100006
-5.969254 4.3611321 68.350006
-5.8131981 4.3563471 68.275002
-5.6595449 4.3531561 68.225006
-5.5081301 4.3515611 68.200005
-5.358788 4.3515611 68.200005
-5.2094469 4.3515611 68.200005
-5.0601058 4.3515611 68.200005
-4.9125652 4.3531561 68.225006
-4.7631679 4.3531561 68.225006
-4.6137719 4.3531561 68.225006
-4.464376 4.3531561 68.225006
-4.3133979 4.3515611 68.200005
-4.1625309 4.349966 68.175003
-4.0117731 4.348371 68.150002
-3.8597071 4.345181 68.100006
-3.7092221 4.343585 68.075005
-3.5575399 4.340395 68.025002
-3.404824 4.3356099 67.950005
-3.254832 4.3340149 67.925003
-3.103806 4.3308239 67.875
-2.9529991 4.3276329 67.825005
-2.8034451 4.3260388 67.800003
-2.6549799 4.3260388 67.800003
-2.5074389 4.3276329 67.825005
-2.3597879 4.3292289 67.850006
-2.212028 4.3308239 67.875
-2.064918 4.3340149 67.925003
-1.91759 4.337204 67.975006
-1.7693909 4.3388 68
-1.621084 4.340395 68.025002
-1.472667 4.34199 68.050003
-1.3236541 4.34199 68.050003
-1.175072 4.343585 68.075005
-1.026005 4.343585 68.075005
-0.87725902 4.345181 68.100006
-5.9605198 4.5040598 68.25
-5.8089409 4.5024099 68.225006
-5.6553969 4.4991112 68.175003
-5.5040908 4.4974608 68.150002
-5.3528948 4.495811 68.125
-5.2037182 4.495811 68.125
-5.0545411 4.495811 68.125
-4.9071641 4.4974608 68.150002
-4.7579322 4.4974608 68.150002
-4.6103911 4.4991112 68.175003
-4.4611049 4.4991112 68.175003
-4.310236 4.4974608 68.150002
-4.1594782 4.495811 68.125
-4.0088301 4.4941621 68.100006
-3.85829 4.4925108 68.075005
-3.7064979 4.489212 68.025002
-3.554925 4.4859118 67.975006
-3.4035709 4.4826131 67.925003
-3.2524359 4.4793129 67.875
-3.1015201 4.4760132 67.825005
-2.951911 4.4743629 67.800003
-2.802412 4.472713 67.775002
-2.654001 4.472713 67.775002
-2.50559 4.472713 67.775002
-2.3589189 4.4760132 67.825005
-2.2112131 4.477663 67.850006
-2.064158 4.4809618 67.900002
-1.9168839 4.484262 67.950005
-1.768741 4.4859118 67.975006
-1.620488 4.4875622 68
-1.472126 4.489212 68.025002
-1.323167 4.489212 68.025002
-1.174641 4.4908619 68.050003
-1.026005 4.4925108 68.075005
-0.877581 4.495811 68.125
-0.728939 4.4991112 68.175003
-5.9605198 4.6533689 68.25
-5.8068118 4.649961 68.200005
-5.6533232 4.6465521 68.150002
-5.5000529 4.6431432 68.100006
-5.3489661 4.641438 68.075005
-5.1998992 4.641438 68.075005
-5.0508308 4.641438 68.075005
-4.901763 4.641438 68.075005
-4.7544422 4.6431432 68.100006
-4.605319 4.6431432 68.100006
-4.4561968 4.6431432 68.100006
-4.3054929 4.641438 68.075005
-4.156425 4.641438 68.075005
-4.0058861 4.6397338 68.050003
-3.8554561 4.6380291 68.025002
-3.703773 4.6346202 67.975006
-3.55231 4.6312108 67.925003
-3.4010661 4.6278019 67.875
-3.2500401 4.624393 67.825005
-3.0992329 4.6209841 67.775002
-2.949734 4.6192789 67.75
-2.801378 4.6192789 67.75
-2.6530221 4.6192789 67.75
-2.5046661 4.6192789 67.75
-2.3580489 4.6226878 67.800003
-2.210398 4.624393 67.825005
-2.0633979 4.6278019 67.875
-1.9161789 4.6312108 67.925003
-1.76809 4.632915 67.950005
-1.619892 4.6346202 67.975006
-1.471585 4.6363239 68
-1.323167 4.6380291 68.025002
-1.174641 4.6397338 68.050003
-1.026381 4.6431432 68.100006
-0.87790298 4.6465521 68.150002
-0.72947299 4.6516652 68.225006
-0.580715 4.6567788 68.300003
-5.9605198 4.8026791 68.25
-5.8089409 4.80092 68.225006
-5.6533232 4.7956419 68.150002
-5.5000529 4.7921238 68.100006
-5.3489661 4.7903638 68.075005
-5.197989 4.7886052 68.050003
-5.047122 4.7868462 68.025002
-4.8981638 4.7868462 68.025002
-4.7492051 4.7868462 68.025002
-4.6002469 4.7868462 68.025002
-4.4512892 4.7868462 68.025002
-4.30233 4.7868462 68.025002
-4.1518459 4.7850862 68
-4.001471 4.7833271 67.975006
-3.8512061 4.7815681 67.950005
-3.699687 4.778049 67.900002
-3.549695 4.7762899 67.875
-3.39856 4.7727718 67.825005
-3.2476439 4.7692542 67.775002
-3.096947 4.7657351 67.725006
-2.9486461 4.7657351 67.725006
-2.7993109 4.7639761 67.700005
-2.6510639 4.7639761 67.700005
-2.503742 4.7657351 67.725006
-2.3571801 4.7692542 67.775002
-2.209584 4.7710128 67.800003
-2.062638 4.7745309 67.850006
-1.9154741 4.778049 67.900002
-1.76809 4.7815681 67.950005
-1.619892 4.7833271 67.975006
-1.471585 4.7850862 68
-1.323167 4.7868462 68.025002
-1.175072 4.7903638 68.075005
-1.026758 4.7938828 68.125
-0.87854701 4.79916 68.200005
-0.73000801 4.8044381 68.275002
-0.58113998 4.8097162 68.350006
-0.43194401 4.8149929 68.425003
-5.9648871 4.955616 68.300003
-5.811069 4.9519868 68.25
-5.6553969 4.9465461 68.175003
-5.5020719 4.9429178 68.125
-5.3489661 4.93929 68.075005
-5.197989 4.9374762 68.050003
-5.047122 4.9356618 68.025002
-4.8963628 4.9338479 68
-4.7457142 4.932034 67.975006
-4.5968661 4.932034 67.975006
-4.446382 4.9302211 67.950005
-4.2975869 4.9302211 67.950005
-4.1472669 4.9284072 67.925003
-3.997056 4.9265928 67.900002
-3.8469551 4.9247789 67.875
-3.6969631 4.922965 67.850006
-3.545773 4.9193368 67.800003
-3.3948021 4.915709 67.75
-3.2452481 4.9138961 67.725006
-3.095804 4.9120822 67.700005
-2.9464681 4.9102669 67.675003
-2.7982769 4.9102669 67.675003
-2.650085 4.9102669 67.675003
-2.5028181 4.9120822 67.700005
-2.3554411 4.9138961 67.725006
-2.2087691 4.9175229 67.775002
-2.061878 4.9211512 67.825005
-1.9147691 4.9247789 67.875
-1.76744 4.9284072 67.925003
-1.619892 4.932034 67.975006
-1.472126 4.9356618 68.025002
-1.3236541 4.9374762 68.050003
-1.175504 4.9411039 68.100006
-1.027135 4.9447322 68.150002
-0.878869 4.9501729 68.225006
-0.730542 4.9574289 68.325005
-0.58156502 4.9628711 68.400002
-0.43225899 4.9683132 68.474998
-5.971437 5.11064 68.375
-5.8174548 5.1069021 68.325005
-5.6616182 5.1012959 68.25
-5.5061111 5.0956912 68.175003
-5.3528948 5.0919542 68.125
-5.1998992 5.0882158 68.075005
-5.047122 5.0844789 68.025002
-4.8963628 5.0826101 68
-4.743969 5.0788741 67.950005
-4.5934849 5.0770049 67.925003
-4.44311 5.0751362 67.900002
-4.2928429 5.073267 67.875
-4.1426878 5.0713992 67.850006
-3.994113 5.0713992 67.850006
-3.8427041 5.0676618 67.800003
-3.6928761 5.065793 67.775002
-3.5431581 5.0639238 67.75
-3.392297 5.0601869 67.700005
-3.242852 5.0583181 67.675003
-3.0935171 5.0564499 67.650002
-2.9442921 5.0545821 67.625008
-2.7962091 5.0545821 67.625008
-2.649106 5.0564499 67.650002
-2.501894 5.0583181 67.675003
-2.3545711 5.0601869 67.700005
-2.2079539 5.0639238 67.75
-2.061878 5.06953 67.825005
-1.9147691 5.073267 67.875
-1.76744 5.0770049 67.925003
-1.619892 5.0807419 67.975006
-1.472126 5.0844789 68.025002
-1.32414 5.0882158 68.075005
-1.175935 5.0919542 68.125
-1.027512 5.0956912 68.175003
-0.87919098 5.1012959 68.25
-0.73080999 5.1087708 68.350006
-0.58177799 5.114377 68.425003
-0.43225899 5.118114 68.474998
-0.28252199 5.121851 68.525002
-5.9779868 5.2659931 68.450005
-5.8238411 5.262146 68.400002
-5.66784 5.2563758 68.325005
-5.510149 5.248682 68.225006
-5.3568239 5.2448359 68.175003
-5.2018089 5.2390671 68.100006
-5.0489759 5.23522 68.050003
-4.8963628 5.2313728 68
-4.7422242 5.2256031 67.925003
-4.5901041 5.221756 67.875
-4.4398379 5.2198329 67.850006
-4.289681 5.2179098 67.825005
-4.1396351 5.2159872 67.800003
-3.9896979 5.2140641 67.775002
-3.83987 5.2121401 67.75
-3.6901519 5.210217 67.725006
-3.5392361 5.2063699 67.675003
-3.389791 5.2044468 67.650002
-3.2404561 5.2025242 67.625008
-3.0912311 5.2006011 67.600006
-2.943203 5.2006011 67.600006
-2.795176 5.2006011 67.600006
-2.6471479 5.2006011 67.600006
-2.5000451 5.2025242 67.625008
-2.3537021 5.2063699 67.675003
-2.207139 5.210217 67.725006
-2.0611179 5.2159872 67.800003
-1.914063 5.2198329 67.850006
-1.76744 5.2256031 67.925003
-1.620488 5.2313728 68
-1.472667 5.23522 68.050003
-1.324626 5.2390671 68.100006
-1.176367 5.2429128 68.150002
-1.027889 5.2467589 68.200005
-0.87951398 5.2525291 68.275002
-0.73080999 5.2582989 68.350006
-0.58156502 5.262146 68.400002
-0.43210101 5.2659931 68.450005
-0.282419 5.2698388 68.500008
-0.13242 5.2698388 68.500008
-5.9845371 5.4216728 68.525002
-5.8302269 5.417717 68.474998
-5.6740618 5.4117832 68.400002
-5.5162058 5.4038711 68.300003
-5.3607531 5.3979368 68.225006
-5.205627 5.3920031 68.150002
-5.0508308 5.3860688 68.075005
-4.8963628 5.3801351 68
-4.7422242 5.3742008 67.925003
-4.5884128 5.368268 67.850006
-4.4365659 5.3643112 67.800003
-4.2865191 5.3623328 67.775002
-4.1365819 5.3603549 67.75
-3.9867539 5.358377 67.725006
-3.8370359 5.3564 67.700005
-3.687427 5.3544211 67.675003
-3.5379281 5.3524432 67.650002
-3.3885391 5.3504648 67.625008
-3.2392581 5.3484869 67.600006
-3.0900879 5.346509 67.575005
-2.9421151 5.346509 67.575005
-2.794142 5.346509 67.575005
-2.6461689 5.346509 67.575005
-2.499121 5.3484869 67.600006
-2.3528321 5.3524432 67.650002
-2.2063251 5.3564 67.700005
-2.060358 5.3623328 67.775002
-1.914063 5.368268 67.850006
-1.76744 5.3742008 67.925003
-1.619892 5.3781571 67.975006
-1.472667 5.3840909 68.050003
-1.324626 5.3880472 68.100006
-1.176367 5.3920031 68.150002
-1.027889 5.3959589 68.200005
-0.87919098 5.3999152 68.25
-0.730542 5.405849 68.325005
-0.58135301 5.4098048 68.375
-0.43194401 5.4137611 68.425003
-0.28221199 5.4157391 68.450005
-0.13237201 5.417717 68.474998
-5.988904 5.5756488 68.574997
-5.8366132 5.573616 68.550003
-5.6782098 5.565485 68.450005
-5.5202441 5.5573549 68.350006
-5.3627172 5.5492239 68.25
-5.2075381 5.5431261 68.175003
-5.0508308 5.5349951 68.075005
-4.8945632 5.526865 67.975006
-4.740478 5.5207658 67.900002
-4.5867219 5.514668 67.825005
-4.4349298 5.510603 67.775002
-4.2833571 5.506537 67.725006
-4.1335292 5.5045052 67.700005
-3.9838109 5.5024719 67.675003
-3.8342021 5.5004401 67.650002
-3.6847031 5.4984069 67.625008
-3.5353141 5.4963751 67.600006
-3.3860331 5.4943409 67.575005
-3.23806 5.4943409 67.575005
-3.0889449 5.4923091 67.550003
-2.941026 5.4923091 67.550003
-2.793108 5.4923091 67.550003
-2.64519 5.4923091 67.550003
-2.4981959 5.4943409 67.575005
-2.351094 5.4963751 67.600006
-2.204695 5.5004401 67.650002
-2.0588379 5.506537 67.725006
-1.912653 5.5126362 67.800003
-1.766139 5.518734 67.875
-1.619297 5.5248318 67.950005
-1.472126 5.53093 68.025002
-1.32414 5.5349951 68.075005
-1.175935 5.5390611 68.125
-1.027512 5.5431261 68.175003
-0.878869 5.5471911 68.225006
-0.73000801 5.5512571 68.275002
-0.58092701 5.5553222 68.325005
-0.43147001 5.5573549 68.350006
-0.282006 5.56142 68.400002
-0.132275 5.5634532 68.425003
-5.9932699 5.7298441 68.625
-5.8387408 5.7256689 68.574997
-5.6802831 5.717319 68.474998
-5.522264 5.7089701 68.375
-5.3646808 5.7006211 68.275002
-5.2075381 5.6922722 68.175003
-5.0508308 5.6839218 68.075005
-4.8945632 5.6755719 67.975006
-4.7387328 5.667222 67.875
-4.585032 5.6609612 67.800003
-4.4332938 5.656786 67.75
-4.281775 5.6526108 67.700005
-4.1320028 5.6505241 67.675003
-3.9823389 5.648437 67.650002
-3.8327849 5.646349 67.625008
-3.683341 5.6442618 67.600006
-3.5340061 5.6421738 67.575005
-3.3860331 5.6421738 67.575005
-3.2368629 5.6400871 67.550003
-3.087801 5.638 67.525009
-2.9399381 5.638 67.525009
-2.7920749 5.638 67.525009
-2.644212 5.638 67.525009
-2.497272 5.6400871 67.550003
-2.350224 5.6421738 67.575005
-2.2030661 5.6442618 67.600006
-2.057318 5.6505241 67.675003
-1.911242 5.656786 67.75
-1.764838 5.6630478 67.825005
-1.618701 5.6713982 67.925003
-1.471585 5.67766 68
-1.3236541 5.6818342 68.050003
-1.175504 5.6860089 68.100006
-1.026758 5.688097 68.125
-0.87822503 5.6922722 68.175003
-0.72947299 5.6964459 68.225006
-0.58029002 5.698534 68.25
-0.43115401 5.7027078 68.300003
-0.2818 5.706883 68.350006
-0.13217901 5.7089701 68.375
-5.9954529 5.8821149 68.650002
-5.8408699 5.877831 68.600006
-5.6823568 5.8692641 68.500008
-5.522264 5.8585529 68.375
-5.3646808 5.8499851 68.275002
-5.205627 5.8392739 68.150002
-5.0489759 5.8307061 68.050003
-4.8927631 5.8221378 67.950005
-4.7387328 5.815711 67.875
-4.585032 5.8092852 67.800003
-4.4332938 5.8050008 67.75
-4.281775 5.8007169 67.700005
-4.1320028 5.798574 67.675003
-3.9823389 5.796432 67.650002
-3.8327849 5.794291 67.625008
-3.683341 5.7921491 67.600006
-3.5340061 5.7900062 67.575005
-3.3847799 5.7878642 67.550003
-3.2356651 5.7857232 67.525009
-3.086658 5.7835798 67.5
-2.938849 5.7835798 67.5
-2.7910409 5.7835798 67.5
-2.6432321 5.7835798 67.5
-2.495424 5.7835798 67.5
-2.348485 5.7857232 67.525009
-2.201437 5.7878642 67.550003
-2.055038 5.7921491 67.600006
-1.909127 5.798574 67.675003
-1.762886 5.8050008 67.75
-1.616913 5.81357 67.850006
-1.469962 5.8199959 67.925003
-1.322681 5.8264208 68
-1.174641 5.8307061 68.050003
-1.026005 5.8328481 68.075005
-0.87725902 5.83499 68.100006
-0.72867101 5.8392739 68.150002
-0.57986498 5.8435578 68.200005
-0.430839 5.8478422 68.25
-0.28159401 5.8521261 68.300003
-0.13213 5.856411 68.350006
-5.9954529 6.032299 68.650002
-5.8408699 6.0279059 68.600006
-5.6823568 6.0191188 68.500008
-5.522264 6.0081348 68.375
-5.3627172 5.9971509 68.25
-5.2037182 5.986167 68.125
-5.047122 5.9773812 68.025002
-4.8909631 5.9685941 67.925003
-4.7369881 5.9620032 67.850006
-4.5833411 5.9554129 67.775002
-4.4316578 5.9510188 67.725006
-4.2801938 5.9466262 67.675003
-4.130476 5.9444289 67.650002
-3.9808681 5.9422331 67.625008
-3.831368 5.9400358 67.600006
-3.6819789 5.937839 67.575005
-3.5326979 5.9356418 67.550003
-3.383528 5.933445 67.525009
-3.234467 5.9312491 67.5
-3.085515 5.9290519 67.475006
-2.936672 5.9268551 67.450005
-2.7889731 5.9268551 67.450005
-2.641274 5.9268551 67.450005
-2.4944999 5.9290519 67.475006
-2.346746 5.9290519 67.475006
-2.1998069 5.9312491 67.5
-2.052758 5.933445 67.525009
-1.906306 5.937839 67.575005
-1.7602839 5.9444289 67.650002
-1.615126 5.9554129 67.775002
-1.468879 5.9642 67.875
-1.3212219 5.9685941 67.925003
-1.173346 5.9729872 67.975006
-1.025251 5.9773812 68.025002
-0.87661499 5.9795771 68.050003
-0.72813702 5.9839711 68.100006
-0.57943898 5.9883642 68.150002
-0.43068099 5.9949541 68.225006
-0.28149101 5.9993482 68.275002
-0.13213 6.005939 68.350006
-5.9954529 6.1824832 68.650002
-5.8408699 6.1779809 68.600006
-5.6844311 6.171226 68.525002
-5.524282 6.1599689 68.400002
-5.3627172 6.1464601 68.25
-5.2037182 6.1352029 68.125
-5.0452671 6.1239462 68
-4.889163 6.1149402 67.900002
-4.7352419 6.1081848 67.825005
-4.5816498 6.1014309 67.75
-4.4300218 6.0969291 67.700005
-4.2801938 6.094676 67.675003
-4.130476 6.0924249 67.650002
-3.9808681 6.0901742 67.625008
-3.831368 6.087923 67.600006
-3.6806171 6.0834188 67.550003
-3.5313909 6.0811682 67.525009
-3.381022 6.0766649 67.475006
-3.2320709 6.0744138 67.450005
-3.0832281 6.0721622 67.425003
-2.9355841 6.0721622 67.425003
-2.78794 6.0721622 67.425003
-2.640296 6.0721622 67.425003
-2.492651 6.0721622 67.425003
-2.3450069 6.0721622 67.425003
-2.1973619 6.0721622 67.425003
-2.0497179 6.0721622 67.425003
-1.902074 6.0721622 67.425003
-1.755731 6.0766649 67.475006
-1.612147 6.0924249 67.650002
-1.4672559 6.1059341 67.800003
-1.32025 6.112689 67.875
-1.172052 6.1149402 67.900002
-1.024121 6.1194429 67.950005
-0.87597102 6.1239462 68
-0.72760201 6.128448 68.050003
-0.57922697 6.1352029 68.125
-0.43052301 6.1419568 68.200005
-0.28149101 6.1487122 68.275002
-0.13213 6.1554661 68.350006
-6.152494 6.3395872 68.724998
-5.9976368 6.3349748 68.675003
-5.8451271 6.3326678 68.650002
-5.6865048 6.3234429 68.550003
-5.5263019 6.311913 68.425003
-5.3646808 6.2980762 68.275002
-5.2037182 6.2842388 68.125
-5.0452671 6.2727079 68
-4.889163 6.263484 67.900002
-4.7334971 6.2542601 67.800003
-4.5816498 6.2496471 67.75
-4.4300218 6.2450352 67.700005
-4.2786131 6.2404218 67.650002
-4.1289501 6.2381158 67.625008
-3.9793961 6.2358098 67.600006
-3.829951 6.2335038 67.575005
-3.6792541 6.2288918 67.525009
-3.5300839 6.2265849 67.5
-3.37977 6.2219729 67.450005
-3.2296751 6.217361 67.400002
-3.0809419 6.215055 67.375008
-2.9334071 6.215055 67.375008
-2.785872 6.215055 67.375008
-2.6383381 6.215055 67.375008
-2.490803 6.215055 67.375008
-2.3432679 6.215055 67.375008
-2.1949179 6.212749 67.350006
-2.0466781 6.2104421 67.325005
-1.898548 6.2081361 67.300003
-1.751177 6.2081361 67.300003
-1.603807 6.2081361 67.300003
-1.4629281 6.2358098 67.600006
-1.318791 6.2542601 67.800003
-1.171188 6.258872 67.850006
-1.02299 6.261178 67.875
-0.87532699 6.268096 67.950005
-0.72706699 6.2727079 68
-0.57880199 6.2796259 68.075005
-0.430365 6.2888522 68.175003
-0.28138801 6.2957702 68.25
-0.13213 6.3049941 68.350006
-6.1547332 6.4922962 68.750008
-6.0020041 6.489934 68.724998
-5.8472562 6.4852128 68.675003
-5.6906528 6.4781308 68.600006
-5.5323591 6.4686871 68.500008
-5.370575 6.4545221 68.350006
-5.205627 6.4356351 68.150002
-5.0452671 6.4214702 68
-4.887362 6.4096661 67.875
-4.7334971 6.4025841 67.800003
-4.5816498 6.397862 67.75
-4.4283862 6.390779 67.675003
-4.2786131 6.3884182 67.650002
-4.1289501 6.3860579 67.625008
-3.9779241 6.3813362 67.575005
-3.8285351 6.3789749 67.550003
-3.677892 6.3742528 67.5
-3.5274689 6.3695321 67.450005
-3.377264 6.36481 67.400002
-3.228477 6.3624492 67.375008
-3.078655 6.357728 67.325005
-2.9312301 6.357728 67.325005
-2.7838049 6.357728 67.325005
-2.6373589 6.3600888 67.350006
-2.4898789 6.3600888 67.350006
-2.3415289 6.357728 67.325005
-2.193289 6.3553672 67.300003
-2.0443981 6.350646 67.25
-1.895727 6.3459239 67.200005
-1.747924 6.3435631 67.175003
-1.600232 6.3412018 67.150002
-1.454272 6.3459239 67.200005
-1.314414 6.3813362 67.575005
-1.169462 6.397862 67.75
-1.0222369 6.4049439 67.825005
-0.87436098 6.4096661 67.875
-0.726533 6.416749 67.950005
-0.57858902 6.4261918 68.050003
-0.43004999 6.4332752 68.125
-0.28128499 6.442718 68.225006
-0.132082 6.4521608 68.325005
-6.1592088 6.6475291 68.800003
-6.006371 6.6451139 68.775002
-5.8515129 6.6402822 68.724998
-5.6968751 6.6354518 68.675003
-5.5404348 6.6282048 68.600006
-5.3803959 6.616127 68.474998
-5.2151761 6.5968032 68.275002
-5.0452671 6.5702319 68
-4.889163 6.5605698 67.900002
-4.7334971 6.5509081 67.800003
-4.5799589 6.5436621 67.725006
-4.4283862 6.5388298 67.675003
-4.2770319 6.5339999 67.625008
-4.1274238 6.5315838 67.600006
-3.9764531 6.526752 67.550003
-3.8271179 6.5243378 67.525009
-3.6765299 6.519506 67.475006
-3.526161 6.5146751 67.425003
-3.3760121 6.5098438 67.375008
-3.2260809 6.505013 67.325005
-3.077513 6.5025978 67.300003
-2.9301419 6.5025978 67.300003
-2.7838049 6.505013 67.325005
-2.636379 6.505013 67.325005
-2.4889541 6.505013 67.325005
-2.3406601 6.5025978 67.300003
-2.191659 6.497766 67.25
-2.0428779 6.4929361 67.200005
-1.894316 6.4881039 67.150002
-1.745973 6.483273 67.099998
-1.5984451 6.4808578 67.075005
-1.452108 6.483273 67.099998
-1.3061481 6.4881039 67.150002
-1.165579 6.5243378 67.525009
-1.02073 6.5436621 67.725006
-0.87339401 6.5509081 67.800003
-0.72599798 6.5605698 67.900002
-0.57795101 6.5678158 67.975006
-0.42973399 6.5774779 68.075005
-0.28107899 6.587141 68.175003
-0.13198499 6.5968032 68.275002
-6.1636848 6.8029819 68.850006
-6.0107369 6.8005109 68.824997
-5.8557701 6.7955718 68.775002
-5.7010221 6.7906308 68.724998
-5.5444741 6.7832198 68.650002
-5.3882542 6.7758098 68.574997
-5.226634 6.7609892 68.425003
-5.0489759 6.7239351 68.050003
-4.8909631 6.7115841 67.925003
-4.7369881 6.704174 67.850006
-4.5816498 6.6942921 67.75
-4.4283862 6.686882 67.675003
-4.2770319 6.681942 67.625008
-4.1258969 6.677001 67.575005
-3.9749811 6.672061 67.525009
-3.825701 6.66959 67.5
-3.675168 6.66465 67.450005
-3.526161 6.662179 67.425003
-3.3760121 6.6572399 67.375008
-3.2260809 6.652298 67.325005
-3.078655 6.652298 67.325005
-2.9301419 6.6498289 67.300003
-2.7838049 6.652298 67.325005
-2.6373589 6.6547689 67.350006
-2.4889541 6.652298 67.325005
-2.3406601 6.6498289 67.300003
-2.191659 6.6448879 67.25
-2.0421181 6.6374769 67.175003
-1.892905 6.6300669 67.099998
-1.7446719 6.6251259 67.050003
-1.597253 6.6226559 67.025009
-1.450485 6.6226559 67.025009
-1.304689 6.6275969 67.075005
-1.159537 6.6374769 67.175003
-1.016585 6.66465 67.450005
-0.87146199 6.684412 67.650002
-0.72492898 6.6992331 67.800003
-0.57731402 6.7091141 67.900002
-0.429261 6.7189951 68
-0.28076899 6.7288761 68.100006
-0.13184001 6.7387571 68.200005
-6.1659231 6.9561291 68.875
-6.0129209 6.9536042 68.850006
-5.8600268 6.9510789 68.824997
-5.7051702 6.9460301 68.775002
-5.548512 6.9384551 68.700005
-5.3921828 6.9308801 68.625
-5.2323632 6.9182549 68.500008
-5.0545411 6.8803821 68.125
-4.8963628 6.8677568 68
-4.740478 6.857657 67.900002
-4.585032 6.847558 67.800003
-4.4300218 6.8374581 67.700005
-4.2770319 6.8298831 67.625008
-4.1258969 6.8248329 67.575005
-3.9749811 6.8197842 67.525009
-3.825701 6.8172579 67.5
-3.675168 6.8122091 67.450005
-3.526161 6.8096838 67.425003
-3.3760121 6.8046341 67.375008
-3.2272789 6.8021102 67.350006
-3.0797989 6.8021102 67.350006
-2.9323189 6.8021102 67.350006
-2.7848389 6.8021102 67.350006
-2.6383381 6.8046341 67.375008
-2.4898789 6.8021102 67.350006
-2.3415289 6.7995839 67.325005
-2.191659 6.7920098 67.25
-2.0421181 6.7844348 67.175003
-1.892905 6.7768602 67.099998
-1.7440211 6.7692852 67.025009
-1.596657 6.7667599 67
-1.449944 6.7667599 67
-1.3037159 6.7692852 67.025009
-1.157811 6.7743349 67.075005
-1.01244 6.7844348 67.175003
-0.86791998 6.8046341 67.375008
-0.72279102 6.8273592 67.600006
-0.576038 6.8425069 67.75
-0.42862901 6.857657 67.900002
-0.28046 6.8702822 68.025002
-0.131695 6.8803821 68.125
-6.1704001 7.1119642 68.925003
-6.0172868 7.1093841 68.900002
-5.8621559 7.1042261 68.850006
-5.707243 7.0990658 68.800003
-5.5505309 7.0913272 68.724998
-5.394146 7.0835881 68.650002
-5.2323632 7.0681109 68.500008
-5.0638151 7.042315 68.25
-4.903564 7.0268378 68.100006
-4.7457142 7.0139389 67.975006
-4.5901041 7.0036211 67.875
-4.4349298 6.9933028 67.775002
-4.2801938 6.9829841 67.675003
-4.1274238 6.975245 67.600006
-3.9764531 6.9700861 67.550003
-3.825701 6.9649258 67.5
-3.6765299 6.962347 67.475006
-3.5274689 6.9597678 67.450005
-3.377264 6.954608 67.400002
-3.2296751 6.954608 67.400002
-3.0809419 6.9520292 67.375008
-2.934495 6.954608 67.400002
-2.786906 6.954608 67.400002
-2.640296 6.9571881 67.425003
-2.4917271 6.954608 67.400002
-2.3423979 6.94945 67.350006
-2.1924739 6.94171 67.275009
-2.0428779 6.9339709 67.200005
-1.892905 6.9236531 67.099998
-1.7440211 6.915915 67.025009
-1.596657 6.9133348 67
-1.449403 6.9107561 66.975006
-1.30323 6.9133348 67
-1.156948 6.915915 67.025009
-1.010933 6.9210739 67.075005
-0.86534297 6.9313922 67.175003
-0.71958297 6.9442902 67.300003
-0.57412499 6.9675059 67.525009
-0.42799801 6.995882 67.800003
-0.28015101 7.0113602 67.950005
-0.13159899 7.0242581 68.075005
-6.328207 7.2706542 69.000008
-6.1748748 7.2680192 68.974998
-6.0216541 7.2653852 68.950005
-5.8664131 7.2601161 68.900002
-5.7093172 7.252213 68.824997
-5.5525498 7.2443099 68.750008
-5.3921828 7.2311392 68.625
-5.230453 7.215333 68.474998
-5.0675249 7.1968932 68.300003
-4.9089651 7.183722 68.175003
-4.7509508 7.1705499 68.050003
-4.5951748 7.1600132 67.950005
-4.4398379 7.1494761 67.850006
-4.2849379 7.138938 67.75
-4.130476 7.1284008 67.650002
-3.9793961 7.1231332 67.600006
-3.8285351 7.1178651 67.550003
-3.677892 7.112596 67.5
-3.5287759 7.109961 67.475006
-3.37977 7.107327 67.450005
-3.2308731 7.104692 67.425003
-3.0832281 7.104692 67.425003
-2.9355841 7.104692 67.425003
-2.7889731 7.107327 67.450005
-2.641274 7.107327 67.450005
-2.492651 7.104692 67.425003
-2.344137 7.1020579 67.400002
-2.194104 7.0941548 67.325005
-2.043638 7.0836191 67.225006
-1.893611 7.073081 67.125008
-1.7446719 7.0651779 67.050003
-1.596657 7.0599089 67
-1.449403 7.0572758 66.975006
-1.3022569 7.0546408 66.950005
-1.156085 7.0572758 66.975006
-1.010179 7.0625439 67.025009
-0.86405498 7.067812 67.075005
-0.71824598 7.0783501 67.175003
-0.57242501 7.0941548 67.325005
-0.42657799 7.1204982 67.575005
-0.27984199 7.1521101 67.875
-0.13155 7.1705499 68.050003
-6.3350859 7.4296699 69.075005
-6.1815901 7.426981 69.050003
-6.026021 7.4216032 69.000008
-5.8685422 7.4135361 68.925003
-5.711391 7.4054689 68.850006
-5.5525498 7.3947129 68.750008
-5.3921828 7.381268 68.625
-5.2323632 7.3678231 68.500008
-5.0712352 7.3516898 68.350006
-4.9125652 7.338244 68.225006
-4.756187 7.3274879 68.125
-4.6019378 7.3194208 68.050003
-4.4480171 7.3113551 67.975006
-4.2928429 7.3005991 67.875
-4.1381092 7.2898431 67.775002
-3.9838109 7.2790861 67.675003
-3.8327849 7.2737088 67.625008
-3.6819789 7.2683311 67.575005
-3.5313909 7.2629528 67.525009
-3.3822751 7.2602639 67.5
-3.233268 7.257575 67.475006
-3.085515 7.257575 67.475006
-2.9377611 7.257575 67.475006
-2.7900071 7.257575 67.475006
-2.6422529 7.257575 67.475006
-2.4935751 7.2548862 67.450005
-2.3450069 7.2521958 67.425003
-2.1949179 7.2441301 67.350006
-2.0443981 7.2333741 67.25
-1.894316 7.2226181 67.150002
-1.745322 7.21455 67.075005
-1.596657 7.2064838 67
-1.448862 7.2011061 66.950005
-1.301771 7.1984162 66.925003
-1.155653 7.2011061 66.950005
-1.009426 7.203795 66.975006
-0.86341101 7.2091742 67.025009
-0.717444 7.2172389 67.099998
-0.57115 7.225307 67.175003
-0.42515701 7.2441301 67.350006
-0.27973899 7.2979102 67.850006
-0.131502 7.3167319 68.025002
-6.3488431 7.5972452 69.224998
-6.1905422 7.589015 69.150002
-6.0303869 7.5780401 69.050003
-5.8727989 7.569808 68.974998
-5.7134652 7.5588341 68.875
-5.5525498 7.5451159 68.750008
-5.3921828 7.5313978 68.625
-5.2323632 7.5176792 68.500008
-5.074944 7.5067039 68.400002
-4.9179649 7.495729 68.300003
-4.7614231 7.484755 68.200005
-4.6086998 7.4792681 68.150002
-4.4545612 7.471036 68.075005
-4.3007488 7.4628062 68
-4.145741 7.4518309 67.900002
-3.991169 7.440856 67.800003
-3.8370359 7.429882 67.700005
-3.686065 7.4243941 67.650002
-3.5353141 7.4189072 67.600006
-3.3847799 7.4134188 67.550003
-3.2356651 7.410676 67.525009
-3.086658 7.4079318 67.5
-2.938849 7.4079318 67.5
-2.7910409 7.4079318 67.5
-2.6422529 7.4051881 67.475006
-2.4935751 7.4024448 67.450005
-2.3450069 7.3997011 67.425003
-2.1949179 7.39147 67.350006
-2.0451579 7.3832388 67.275009
-1.895021 7.3722639 67.175003
-1.745322 7.361289 67.075005
-1.597253 7.355803 67.025009
-1.448862 7.3475709 66.950005
-1.301771 7.3448272 66.925003
-1.1552221 7.3448272 66.925003
-1.0090491 7.3475709 66.950005
-0.86276698 7.3503151 66.975006
-0.71691 7.3585458 67.050003
-0.570512 7.3640318 67.099998
-0.42452601 7.3804951 67.25
-0.27994499 7.4518309 67.900002
-0.13159899 7.471036 68.075005
-6.5192089 7.7710748 69.425003
-6.3603072 7.7626801 69.350006
-6.2017331 7.7542839 69.275002
-6.0391202 7.7402921 69.150002
-5.8770561 7.7263012 69.025002
-5.715539 7.7123079 68.900002
-5.5545688 7.6983171 68.775002
-5.394146 7.6843252 68.650002
-5.234272 7.6703329 68.525002
-5.0767999 7.6591401 68.425003
-4.9215651 7.6507449 68.350006
-4.7666588 7.6423502 68.275002
-4.6137719 7.6367531 68.225006
-4.4611049 7.631156 68.175003
-4.3070741 7.6227608 68.100006
-4.1533728 7.6143661 68.025002
-3.997056 7.6003742 67.900002
-3.8427041 7.5891809 67.800003
-3.6901519 7.5807848 67.725006
-3.5379281 7.5723901 67.650002
-3.3872859 7.5667939 67.600006
-3.23806 7.5639949 67.575005
-3.087801 7.5583992 67.525009
-2.9399381 7.5583992 67.525009
-2.7910409 7.5556002 67.5
-2.6422529 7.5528021 67.475006
-2.4935751 7.550004 67.450005
-2.344137 7.5444059 67.400002
-2.194104 7.5360112 67.325005
-2.0443981 7.527616 67.25
-1.895021 7.5192208 67.175003
-1.745973 7.5108261 67.099998
-1.597253 7.5024309 67.025009
-1.449403 7.4968352 66.975006
-1.3022569 7.4940362 66.950005
-1.155653 7.4940362 66.950005
-1.0090491 7.4940362 66.950005
-0.86308903 7.4996319 67
-0.71691 7.5052299 67.050003
-0.570512 7.5108261 67.099998
-0.42563099 7.547205 67.425003
-0.280357 7.611567 68
-0.131937 7.6395512 68.25
-6.5239038 7.9286599 69.474998
-6.3671861 7.922955 69.425003
-6.2106848 7.9172478 69.375
-6.0478539 7.9029841 69.250008
-5.885571 7.8887181 69.125
-5.719687 7.8687472 68.950005
-5.5565882 7.8516278 68.800003
-5.394146 7.8345098 68.650002
-5.238091 7.8259511 68.574997
-5.0805092 7.814538 68.474998
-4.9251652 7.8059778 68.400002
-4.7718949 7.8002729 68.350006
-4.618845 7.7945671 68.300003
-4.466012 7.7888598 68.25
-4.3118181 7.780302 68.175003
-4.1579518 7.7717419 68.100006
-4.002943 7.7603302 68
-3.848371 7.7489181 67.900002
-3.6942379 7.737505 67.800003
-3.5405431 7.7260928 67.700005
-3.389791 7.720387 67.650002
-3.2392581 7.7146811 67.600006
-3.0889449 7.7089748 67.550003
-2.9399381 7.7061219 67.525009
-2.7900071 7.7004161 67.475006
-2.641274 7.6975632 67.450005
-2.4917271 7.6918559 67.400002
-2.3423979 7.686151 67.350006
-2.1924739 7.6775918 67.275009
-2.043638 7.671885 67.225006
-1.894316 7.6633258 67.150002
-1.745973 7.657619 67.099998
-1.597849 7.6519141 67.050003
-1.449944 7.6462069 67
-1.302744 7.6433549 66.975006
-1.156085 7.6433549 66.975006
-1.0098031 7.6462069 67
-0.86341101 7.6490612 67.025009
-0.717444 7.657619 67.099998
-0.57115 7.6661792 67.175003
-0.426893 7.7175341 67.625008
-0.28076899 7.7717419 68.100006
-0.132807 7.8402162 68.700005
-6.5286002 8.0864649 69.525002
-6.3717709 8.0806494 69.474998
-6.2173991 8.0777416 69.450005
-6.0565872 8.0661106 69.350006
-5.894084 8.0515718 69.224998
-5.727982 8.0312176 69.050003
-5.5586081 8.0050478 68.824997
-5.3980761 7.990509 68.700005
-5.2400012 7.978878 68.600006
-5.084219 7.9701548 68.525002
-4.9305658 7.9643388 68.474998
-4.7753859 7.955616 68.400002
-4.6239161 7.9527092 68.375
-4.4709201 7.9468932 68.325005
-4.3165612 7.938169 68.25
-4.1625309 7.9294472 68.175003
-4.0073581 7.9178152 68.075005
-3.8512061 7.903276 67.950005
-3.6969631 7.8916459 67.850006
-3.5431581 7.8800139 67.75
-3.3910439 7.8712912 67.675003
-3.2404561 7.8654761 67.625008
-3.0900879 7.8596601 67.575005
-2.9399381 7.8538451 67.525009
-2.7900071 7.8480291 67.475006
-2.6393161 7.8393059 67.400002
-2.4898789 7.8334899 67.350006
-2.3406601 7.8276749 67.300003
-2.190845 7.8189521 67.225006
-2.0421181 7.8131361 67.175003
-1.893611 7.8073211 67.125008
-1.745322 7.8015051 67.075005
-1.597849 7.7985969 67.050003
-1.451026 7.7985969 67.050003
-1.304202 7.7985969 67.050003
-1.157379 7.7985969 67.050003
-1.010933 7.8015051 67.075005
-0.86469901 7.8073211 67.125008
-0.71904802 7.8218589 67.25
-0.57327503 7.8422141 67.425003
-0.42705101 7.8683829 67.650002
-0.28221199 7.961432 68.450005
-0.13328999 8.0195866 68.950005
-6.5309472 8.2415257 69.550003
-6.3763571 8.2385635 69.525002
-6.2196369 8.2326384 69.474998
-6.063138 8.2267132 69.425003
-5.9025989 8.2148638 69.325005
-5.7383509 8.1970892 69.175003
-5.5646648 8.1645021 68.900002
-5.4020052 8.1467276 68.750008
-5.2438202 8.1348782 68.650002
-5.0879278 8.1259899 68.574997
-4.934166 8.1200657 68.525002
-4.780622 8.1141415 68.474998
-4.6272979 8.1082153 68.425003
-4.4741921 8.1022911 68.375
-4.3213038 8.0963659 68.325005
-4.1655841 8.0845165 68.225006
-4.0103011 8.0726662 68.125
-3.854039 8.0578537 68
-3.699687 8.0460043 67.900002
-3.545773 8.0341549 67.800003
-3.392297 8.0223045 67.700005
-3.2404561 8.0134172 67.625008
-3.0900879 8.0074921 67.575005
-2.938849 7.9986048 67.5
-2.7889731 7.992681 67.450005
-2.6383381 7.9837928 67.375008
-2.48803 7.974905 67.300003
-2.3380511 7.9660192 67.225006
-2.1884 7.95713 67.150002
-2.0398381 7.9512062 67.099998
-1.8922 7.9482441 67.075005
-1.745322 7.9482441 67.075005
-1.5984451 7.9482441 67.075005
-1.4515671 7.9482441 67.075005
-1.3051749 7.9512062 67.099998
-1.158674 7.9541678 67.125008
-1.01244 7.960093 67.175003
-0.86663198 7.9719429 67.275009
-0.72065198 7.9867549 67.400002
-0.57391298 7.9986048 67.5
-0.42720899 8.0193424 67.675003
-0.28355199 8.1496906 68.775002
-0.133387 8.1763535 69.000008
-6.3763571 8.3906622 69.525002
-6.2218761 8.3876457 69.500008
-6.063138 8.3785934 69.425003
-5.9047279 8.3695421 69.350006
-5.7424989 8.3544559 69.224998
-5.5687032 8.3212681 68.950005
-5.4059329 8.3031635 68.800003
-5.2495489 8.2941141 68.724998
-5.093493 8.2850618 68.650002
-4.9395671 8.2790279 68.600006
-4.7858591 8.2729931 68.550003
-4.63237 8.2669601 68.500008
-4.4790988 8.2609253 68.450005
-4.3244672 8.251873 68.375
-4.1686368 8.2398052 68.275002
-4.0132451 8.2277374 68.175003
-3.856873 8.2126503 68.050003
-3.70105 8.1975651 67.925003
-3.54708 8.1854963 67.825005
-3.393549 8.1734276 67.725006
-3.2416539 8.1643772 67.650002
-3.0900879 8.1553249 67.575005
-2.938849 8.1462736 67.5
-2.78794 8.1372223 67.425003
-2.6373589 8.128171 67.350006
-2.486181 8.1161022 67.25
-2.3363121 8.1070509 67.175003
-2.1867709 8.0979996 67.099998
-2.0383179 8.0919657 67.050003
-1.891495 8.0919657 67.050003
-1.7446719 8.0919657 67.050003
-1.5984451 8.0949821 67.075005
-1.452108 8.0979996 67.099998
-1.3061481 8.1040335 67.150002
-1.159969 8.1100683 67.200005
-1.013947 8.1191196 67.275009
-0.86791998 8.1311884 67.375008
-0.72145402 8.1432562 67.475006
-0.57433802 8.1523085 67.550003
-0.427367 8.1704111 67.700005
-0.28396499 8.3122168 68.875
-0.133435 8.3303194 69.025002
-6.224113 8.5427608 69.525002
-6.06532 8.5335445 69.450005
-5.906857 8.5243292 69.375
-5.7445731 8.5089703 69.250008
-5.57476 8.4813232 69.025002
-5.4118261 8.4628925 68.875
-5.2533679 8.4506054 68.775002
-5.0990582 8.4444609 68.724998
-4.9449668 8.4383183 68.675003
-4.7910948 8.4321747 68.625
-4.6374412 8.4260311 68.574997
-4.4840069 8.4198866 68.525002
-4.3276291 8.4076004 68.425003
-4.171689 8.3953123 68.325005
-4.0147161 8.3799534 68.200005
-3.85829 8.3645945 68.075005
-3.7024109 8.3492355 67.950005
-3.54708 8.3338757 67.825005
-3.393549 8.3215895 67.725006
-3.2416539 8.3123732 67.650002
-3.0900879 8.3031569 67.575005
-2.938849 8.2939405 67.5
-2.786906 8.2816553 67.400002
-2.635401 8.2693672 67.300003
-2.484333 8.257081 67.200005
-2.334573 8.2478647 67.125008
-2.185142 8.2386494 67.050003
-2.0375581 8.2355776 67.025009
-1.89079 8.2355776 67.025009
-1.7440211 8.2355776 67.025009
-1.5984451 8.2417202 67.075005
-1.452649 8.2478647 67.125008
-1.3066339 8.2540083 67.175003
-1.160832 8.2632236 67.25
-1.014701 8.272439 67.325005
-0.86824203 8.2816553 67.400002
-0.72172099 8.2939405 67.5
-0.57455099 8.3031569 67.575005
-0.430208 8.3738098 68.150002
-0.28417099 8.4690371 68.925003
-0.13348401 8.484396 69.050003
-6.06532 8.6854782 69.450005
-5.9047279 8.6729727 69.350006
-5.7424989 8.65734 69.224998
-5.5787988 8.6385813 69.075005
-5.4177189 8.6229486 68.950005
-5.2590981 8.6104422 68.850006
-5.1046228 8.6041889 68.800003
-4.950367 8.5979366 68.750008
-4.7980762 8.5948095 68.724998
-4.6425128 8.5854301 68.650002
-4.487278 8.5760508 68.574997
-4.330791 8.5635443 68.474998
-4.1732159 8.5479126 68.350006
-4.0161881 8.532279 68.225006
-3.85829 8.5135202 68.075005
-3.70105 8.4947615 67.925003
-3.545773 8.4791288 67.800003
-3.392297 8.4666224 67.700005
-3.2404561 8.457243 67.625008
-3.0889449 8.4478636 67.550003
-2.9377611 8.4384832 67.475006
-2.785872 8.4259777 67.375008
-2.635401 8.4165983 67.300003
-2.484333 8.4040928 67.200005
-2.333704 8.3915854 67.099998
-2.185142 8.3853331 67.050003
-2.036798 8.3790798 67
-1.890085 8.3790798 67
-1.7440211 8.382206 67.025009
-1.5984451 8.3884592 67.075005
-1.452649 8.3947124 67.125008
-1.3066339 8.4009657 67.175003
-1.160832 8.4103451 67.25
-1.0150779 8.4228516 67.350006
-0.86856401 8.43223 67.425003
-0.72172099 8.4416103 67.5
-0.57497603 8.457243 67.625008
-0.43415299 8.6010628 68.775002
-0.28437701 8.6260748 68.974998
-0.13358 8.6417084 69.100006
-6.0675039 8.8405943 69.474998
-5.9047279 8.8246889 69.350006
-5.7424989 8.8087826 69.224998
-5.5808182 8.7928762 69.100006
-5.4236131 8.7833328 69.025002
-5.266736 8.7737894 68.950005
-5.112042 8.7674255 68.900002
-4.9575682 8.7610645 68.850006
-4.805058 8.7578821 68.824997
-4.6492758 8.7483397 68.750008
-4.492187 8.7356138 68.650002
-4.3339529 8.7197084 68.525002
-4.1747432 8.7006207 68.375
-4.0147161 8.6783524 68.200005
-3.856873 8.6592665 68.050003
-3.699687 8.6401787 67.900002
-3.544466 8.6242723 67.775002
-3.3910439 8.6115475 67.675003
-3.2392581 8.6020041 67.600006
-3.087801 8.5924606 67.525009
-2.936672 8.5829172 67.450005
-2.785872 8.5733728 67.375008
-2.6344221 8.5606489 67.275009
-2.4834089 8.5479231 67.175003
-2.333704 8.5383787 67.099998
-2.1843269 8.5288363 67.025009
-2.036798 8.5256548 67
-1.890085 8.5256548 67
-1.7440211 8.5288363 67.025009
-1.597849 8.5320177 67.050003
-1.452108 8.5383787 67.099998
-1.3066339 8.5479231 67.175003
-1.160832 8.5574675 67.25
-1.014701 8.5670109 67.325005
-0.86824203 8.5765543 67.400002
-0.72172099 8.5892792 67.5
-0.57986498 8.6783524 68.200005
-0.435258 8.7737894 68.950005
-0.284686 8.7865143 69.050003
-0.13362899 8.7960577 69.125
-5.9047279 8.9764032 69.350006
-5.7445731 8.9634609 69.250008
-5.584856 8.9505157 69.150002
-5.4275408 8.9408092 69.075005
-5.2724638 8.9343367 69.025002
-5.1176071 8.927865 68.974998
-4.9647679 8.9246292 68.950005
-4.8120389 8.9213934 68.925003
-4.6560378 8.9116859 68.850006
-4.5003662 8.9019775 68.775002
-4.338697 8.8793268 68.600006
-4.171689 8.8437309 68.325005
-4.0117731 8.8210802 68.150002
-3.854039 8.8016644 68
-3.6969631 8.7822495 67.850006
-3.5431581 8.7693052 67.75
-3.389791 8.756362 67.650002
-3.23806 8.7466536 67.575005
-3.086658 8.7369461 67.5
-2.9355841 8.7272387 67.425003
-2.7848389 8.7175322 67.350006
-2.6344221 8.7078238 67.275009
-2.4834089 8.6948795 67.175003
-2.333704 8.6851711 67.099998
-2.185142 8.6787004 67.050003
-2.0375581 8.6754646 67.025009
-1.890085 8.6722288 67
-1.7440211 8.6754646 67.025009
-1.597849 8.6787004 67.050003
-1.452108 8.6851711 67.099998
-1.3061481 8.6916437 67.150002
-1.1604 8.7013512 67.225006
-1.0143239 8.7110596 67.300003
-0.86791998 8.720768 67.375008
-0.72198898 8.7401829 67.525009
-0.58581603 8.9181576 68.900002
-0.43573099 8.9343367 69.025002
-0.28489199 8.9440451 69.100006
-0.133725 8.9537535 69.175003
-5.9196281 9.1511536 69.525002
-5.7466459 9.118248 69.275002
-5.5909128 9.1116657 69.224998
-5.433434 9.1017942 69.150002
-5.278193 9.0952139 69.100006
-5.1250272 9.0919237 69.075005
-4.9719691 9.0886326 69.050003
-4.817276 9.0820513 69.000008
-4.6628008 9.07547 68.950005
-4.5085449 9.0688887 68.900002
-4.3497648 9.0524359 68.775002
-4.1686368 8.9866247 68.275002
-4.0073581 8.9602985 68.075005
-3.8512061 8.9438457 67.950005
-3.695601 8.927393 67.825005
-3.5405431 8.9109402 67.700005
-3.3885391 8.9010687 67.625008
-3.2368629 8.8911963 67.550003
-3.086658 8.8846149 67.5
-2.9355841 8.8747435 67.425003
-2.7848389 8.864872 67.350006
-2.6344221 8.8549995 67.275009
-2.484333 8.8451281 67.200005
-2.334573 8.8352566 67.125008
-2.185956 8.8286753 67.075005
-2.0375581 8.822094 67.025009
-1.89079 8.822094 67.025009
-1.7446719 8.8253851 67.050003
-1.5984451 8.8286753 67.075005
-1.452108 8.8319654 67.099998
-1.3061481 8.8385468 67.150002
-1.1604 8.8484192 67.225006
-1.0143239 8.8582907 67.300003
-0.867598 8.864872 67.350006
-0.72466201 8.9208117 67.775002
-0.586667 9.0820513 69.000008
-0.43604699 9.0919237 69.075005
-0.285099 9.1017942 69.150002
-0.133774 9.1083755 69.200005
-5.9430418 9.3400497 69.800003
-5.7507949 9.2764902 69.325005
-5.5949512 9.2697992 69.275002
-5.4393268 9.2631083 69.224998
-5.2858319 9.2597637 69.200005
-5.1305909 9.2530727 69.150002
-4.9773688 9.2497272 69.125
-4.8225121 9.2430372 69.075005
-4.6678729 9.2363472 69.025002
-4.513453 9.2296553 68.974998
-4.3576708 9.2196198 68.900002
-4.161005 9.1192608 68.150002
-4.004415 9.1025352 68.025002
-3.849788 9.0891542 67.925003
-3.6942379 9.0724277 67.800003
-3.5405431 9.0590458 67.700005
-3.3885391 9.0490103 67.625008
-3.2368629 9.0389748 67.550003
-3.086658 9.0322838 67.5
-2.9355841 9.0222473 67.425003
-2.785872 9.0155582 67.375008
-2.635401 9.0055218 67.300003
-2.4852569 8.9954863 67.225006
-2.335443 8.9854498 67.150002
-2.1867709 8.9787588 67.099998
-2.039078 8.9754143 67.075005
-1.891495 8.9720688 67.050003
-1.745322 8.9754143 67.075005
-1.59904 8.9787588 67.099998
-1.452649 8.9821053 67.125008
-1.3066339 8.9887943 67.175003
-1.160832 8.9988308 67.25
-1.0143239 9.0055218 67.300003
-0.86791998 9.0155582 67.375008
-0.72813702 9.1125708 68.100006
-0.58709198 9.2396917 69.050003
-0.436205 9.2463827 69.100006
-0.285202 9.2564192 69.175003
-0.13387001 9.2664547 69.250008
-5.9536862 9.5097494 69.925003
-5.7611642 9.4451504 69.450005
-5.6010079 9.431551 69.350006
-5.44522 9.4247503 69.300003
-5.2896509 9.4179506 69.250008
-5.1361551 9.4145498 69.224998
-4.9809699 9.4077501 69.175003
-4.8260031 9.4009504 69.125
-4.6695628 9.3907509 69.050003
-4.5167251 9.387351 69.025002
-4.3402781 9.3329515 68.625
-4.1579518 9.2615519 68.100006
-4.002943 9.2479525 68
-3.848371 9.2343512 67.900002
-3.6942379 9.2207518 67.800003
-3.5405431 9.2071514 67.700005
-3.3885391 9.1969519 67.625008
-3.23806 9.1901512 67.575005
-3.086658 9.1799517 67.5
-2.936672 9.173152 67.450005
-2.786906 9.1663513 67.400002
-2.636379 9.1561518 67.325005
-2.486181 9.1459513 67.25
-2.3363121 9.1357517 67.175003
-2.1875861 9.128952 67.125008
-2.0398381 9.1255512 67.099998
