ply
format ascii 1.0
comment PCL generated
element vertex 1592
property float x
property float y
property float z
element face 0
element camera 0
property float view_px
property float view_py
property float view_pz
property float x_axisx
property float x_axisy
property float x_axisz
property float y_axisx
property float y_axisy
property float y_axisz
property float z_axisx
property float z_axisy
property float z_axisz
property float focal
property float scalex
property float scaley
property float centerx
property float centery
property int viewportx
property int viewporty
property float k1
property float k2
end_header
-2.238914 4.233171 68.700005
-2.0907581 4.237792 68.775002
-1.941568 4.2408719 68.824997
-1.792159 4.2439542 68.875
-1.641935 4.2454939 68.900002
-1.492144 4.2485752 68.950005
-1.342132 4.2516561 69.000008
-1.19967 4.282465 69.500008
-1.054641 4.3117328 69.974998
-5.0187721 4.4472699 69.700005
-4.8609099 4.4424839 69.625
-4.7016859 4.4361038 69.525002
-4.536356 4.4233432 69.325005
-4.3687391 4.407392 69.075005
-4.1854272 4.3738928 68.550003
-4.0235462 4.3611321 68.350006
-3.869626 4.3563471 68.275002
-3.716033 4.3515611 68.200005
-3.5627699 4.346776 68.125
-3.4123399 4.345181 68.100006
-3.2632179 4.345181 68.100006
-3.115238 4.346776 68.125
-2.9682381 4.349966 68.175003
-2.822052 4.3547511 68.25
-2.676517 4.3611321 68.350006
-2.5314691 4.3691082 68.474998
-2.3850031 4.3754878 68.574997
-2.2381001 4.3818688 68.675003
-2.089998 4.3866539 68.750008
-1.940863 4.3898439 68.800003
-1.790858 4.391439 68.824997
-1.64134 4.39463 68.875
-1.491061 4.396225 68.900002
-1.3411601 4.399415 68.950005
-1.191039 4.402606 69.000008
-1.053134 4.458436 69.875
-5.1732531 4.6014009 69.724998
-5.016973 4.5981011 69.675003
-4.8591652 4.593152 69.600006
-4.6949229 4.5816031 69.425003
-4.5265412 4.565104 69.175003
-4.3545079 4.5436559 68.850006
-4.1808481 4.518909 68.474998
-4.0206032 4.50736 68.300003
-3.866791 4.5024099 68.225006
-3.711947 4.495811 68.125
-3.560154 4.4925108 68.075005
-3.4098339 4.4908619 68.050003
-3.2608221 4.4908619 68.050003
-3.112952 4.4925108 68.075005
-2.967149 4.4974608 68.150002
-2.8210189 4.5024099 68.225006
-2.675539 4.5090098 68.325005
-2.530545 4.5172591 68.450005
-2.3841341 4.523859 68.550003
-2.2372849 4.530458 68.650002
-2.0884781 4.5337582 68.700005
-1.939453 4.5370569 68.750008
-1.790208 4.5403571 68.800003
-1.640148 4.542006 68.824997
-1.489979 4.5436559 68.850006
-1.3397011 4.5453062 68.875
-1.1897449 4.5486059 68.925003
-1.043714 4.5700541 69.250008
-5.325933 4.7539368 69.724998
-5.1713991 4.752233 69.700005
-5.015172 4.7488241 69.650002
-4.853929 4.7403011 69.525002
-4.6813979 4.7198458 69.224998
-4.51509 4.7045059 69.000008
-4.3497648 4.6891651 68.775002
-4.1808481 4.6687102 68.474998
-4.0206032 4.6567788 68.300003
-3.865375 4.649961 68.200005
-3.7105851 4.6431432 68.100006
-3.558847 4.6397338 68.050003
-3.4073291 4.6363239 68
-3.259624 4.6380291 68.025002
-3.111809 4.6397338 68.050003
-2.9660611 4.6448469 68.125
-2.8210189 4.6516652 68.225006
-2.675539 4.658484 68.325005
-2.530545 4.667006 68.450005
-2.3841341 4.6738238 68.550003
-2.23647 4.6789379 68.625
-2.087718 4.6823468 68.675003
-1.938747 4.6857562 68.724998
-1.7889071 4.6874599 68.750008
-1.638957 4.6891651 68.775002
-1.488897 4.6908689 68.800003
-1.339215 4.6942792 68.850006
-1.188882 4.6959829 68.875
-1.038816 4.6993918 68.925003
-5.3240242 4.9047141 69.700005
-5.1676879 4.901195 69.650002
-5.0097718 4.8959179 69.575005
-4.841711 4.880085 69.350006
-4.6712542 4.860734 69.075005
-4.5101819 4.8501778 68.925003
-4.3466029 4.8361039 68.724998
-4.182374 4.820271 68.500008
-4.0220752 4.8079562 68.325005
-3.865375 4.79916 68.200005
-3.7105851 4.7921238 68.100006
-3.5575399 4.7868462 68.025002
-3.4073291 4.7850862 68
-3.259624 4.7868462 68.025002
-3.111809 4.7886052 68.050003
-2.9660611 4.7938828 68.125
-2.8210189 4.80092 68.225006
-2.676517 4.8097162 68.350006
-2.530545 4.816752 68.450005
-2.3841341 4.8237901 68.550003
-2.235656 4.8273082 68.600006
-2.0869579 4.8308258 68.650002
-1.937337 4.8325849 68.675003
-1.787606 4.8343439 68.700005
-1.637765 4.8361039 68.724998
-1.487815 4.837863 68.750008
-1.337756 4.839622 68.775002
-1.188018 4.8431411 68.824997
-1.038062 4.8466592 68.875
-0.89947999 4.9135098 69.825005
-5.3163862 5.0499392 69.600006
-5.1602688 5.0463109 69.550003
-4.9971709 5.035428 69.400002
-4.829493 5.0191031 69.175003
-4.666183 5.0064049 69.000008
-4.5052738 4.995522 68.850006
-4.3466029 4.9864521 68.724998
-4.1839008 4.971941 68.525002
-4.0235462 4.9592438 68.350006
-3.865375 4.948359 68.200005
-3.711947 4.9429178 68.125
-3.558847 4.9374762 68.050003
-3.408582 4.9356618 68.025002
-3.259624 4.9356618 68.025002
-3.112952 4.93929 68.075005
-2.967149 4.9447322 68.150002
-2.822052 4.9519868 68.25
-2.676517 4.9592438 68.350006
-2.530545 4.9664989 68.450005
-2.3832641 4.971941 68.525002
-2.2348411 4.9755678 68.574997
-2.0861981 4.979197 68.625
-1.935926 4.979197 68.625
-1.786305 4.98101 68.650002
-1.636574 4.9828238 68.675003
-1.486733 4.9846382 68.700005
-1.3367831 4.9864521 68.724998
-1.187155 4.9900799 68.775002
-1.036932 4.9918938 68.800003
-0.88756502 4.9991488 68.900002
-5.4648638 5.1984639 69.550003
-5.306838 5.1928582 69.474998
-5.147285 5.1853838 69.375
-4.98457 5.1741719 69.224998
-4.8225121 5.162961 69.075005
-4.6644921 5.1554861 68.974998
-4.5036368 5.1442742 68.824997
-4.343441 5.1330628 68.675003
-4.182374 5.1199832 68.500008
-4.0235462 5.1087708 68.350006
-3.866791 5.0994282 68.225006
-3.711947 5.0919542 68.125
-3.560154 5.0882158 68.075005
-3.4098339 5.0863481 68.050003
-3.2608221 5.0863481 68.050003
-3.114095 5.090085 68.100006
-2.967149 5.093822 68.150002
-2.822052 5.1012959 68.25
-2.676517 5.1087708 68.350006
-2.5296209 5.114377 68.425003
-2.382395 5.1199832 68.500008
-2.234026 5.1237202 68.550003
-2.0846779 5.1255879 68.574997
-1.934516 5.1255879 68.574997
-1.785004 5.1274571 68.600006
-1.634786 5.1274571 68.600006
-1.48511 5.1293259 68.625
-1.335811 5.1330628 68.675003
-1.1862921 5.1367998 68.724998
-1.0365551 5.1405368 68.775002
-0.88627601 5.142406 68.800003
-5.4530778 5.339077 69.400002
-5.2972898 5.3352308 69.350006
-5.138011 5.327538 69.250008
-4.9791689 5.3198452 69.150002
-4.8190212 5.3102279 69.025002
-4.65942 5.300611 68.900002
-4.5003662 5.2909961 68.775002
-4.3402781 5.2794561 68.625
-4.1808481 5.2679162 68.474998
-4.0235462 5.2582989 68.350006
-3.866791 5.248682 68.225006
-3.713309 5.2429128 68.150002
-3.5614619 5.2390671 68.100006
-3.411087 5.237143 68.075005
-3.2620201 5.237143 68.075005
-3.115238 5.2409902 68.125
-2.9682381 5.2448359 68.175003
-2.8210189 5.248682 68.225006
-2.6745601 5.2544532 68.300003
-2.5277719 5.260222 68.375
-2.380656 5.2659931 68.450005
-2.2323971 5.2698388 68.500008
-2.083158 5.2717628 68.525002
-1.933105 5.2717628 68.525002
-1.783052 5.2717628 68.525002
-1.633595 5.273685 68.550003
-1.484028 5.275609 68.574997
-1.334838 5.2794561 68.625
-1.185861 5.2852249 68.700005
-1.036178 5.289072 68.750008
-0.88595402 5.2909961 68.775002
-5.44522 5.4829912 69.300003
-5.2877421 5.477057 69.224998
-5.1324458 5.4731011 69.175003
-4.9737692 5.465189 69.075005
-4.8137851 5.4552989 68.950005
-4.6543469 5.4454079 68.824997
-4.4938231 5.4335408 68.675003
-4.335535 5.4236512 68.550003
-4.1777949 5.4137611 68.425003
-4.0220752 5.405849 68.325005
-3.8682079 5.3999152 68.25
-3.7146709 5.393981 68.175003
-3.5627699 5.3900251 68.125
-3.4123399 5.3880472 68.100006
-3.2632179 5.3880472 68.100006
-3.115238 5.3900251 68.125
-2.967149 5.3920031 68.150002
-2.8199849 5.3959589 68.200005
-2.6735809 5.4018931 68.275002
-2.525923 5.405849 68.325005
-2.378047 5.4098048 68.375
-2.2299521 5.4137611 68.425003
-2.080878 5.4157391 68.450005
-1.931695 5.417717 68.474998
-1.781751 5.417717 68.474998
-1.632403 5.4196949 68.500008
-1.483487 5.4236512 68.550003
-1.334352 5.4276071 68.600006
-1.185429 5.4335408 68.675003
-1.0358011 5.4374971 68.724998
-0.88595402 5.441453 68.775002
-5.4373631 5.6264658 69.200005
-5.2839222 5.624433 69.175003
-5.1268811 5.6183348 69.100006
-4.968369 5.6102052 69.000008
-4.808548 5.6000409 68.875
-4.6475849 5.5878448 68.724998
-4.488915 5.577682 68.600006
-4.3323731 5.569551 68.500008
-4.1762691 5.56142 68.400002
-4.0220752 5.5553222 68.325005
-3.8682079 5.5492239 68.25
-3.716033 5.5451589 68.200005
-3.5640769 5.5410929 68.150002
-3.4135931 5.5390611 68.125
-3.264415 5.5390611 68.125
-3.115238 5.5390611 68.125
-2.9660611 5.5390611 68.125
-2.8189509 5.5431261 68.175003
-2.670644 5.5451589 68.200005
-2.5231509 5.5492239 68.25
-2.3754389 5.5532889 68.300003
-2.2275081 5.5573549 68.350006
-2.078598 5.5593872 68.375
-1.929579 5.56142 68.400002
-1.78045 5.5634532 68.425003
-1.631808 5.5675182 68.474998
-1.482946 5.5715842 68.525002
-1.333866 5.5756488 68.574997
-1.184998 5.5817471 68.650002
-1.035424 5.585813 68.700005
-0.88563198 5.5898781 68.750008
-5.586875 5.7757659 69.175003
-5.433434 5.7736788 69.150002
-5.278193 5.7695041 69.100006
-5.1213169 5.7632418 69.025002
-4.9611678 5.7528052 68.900002
-4.7980762 5.738194 68.724998
-4.639132 5.727757 68.600006
-4.4840069 5.7214952 68.525002
-4.3292098 5.7152319 68.450005
-4.1747432 5.7089701 68.375
-4.0220752 5.7047949 68.325005
-3.8682079 5.698534 68.25
-3.7173951 5.6964459 68.225006
-3.5653839 5.6922722 68.175003
-3.414845 5.6901841 68.150002
-3.264415 5.688097 68.125
-3.115238 5.688097 68.125
-2.9660611 5.688097 68.125
-2.816884 5.688097 68.125
-2.6686859 5.6901841 68.150002
-2.5203781 5.6922722 68.175003
-2.3728311 5.6964459 68.225006
-2.225064 5.7006211 68.275002
-2.076318 5.7027078 68.300003
-1.928169 5.706883 68.350006
-1.7791491 5.7089701 68.375
-1.631212 5.7152319 68.450005
-1.4824049 5.7194071 68.500008
-1.333866 5.7256689 68.574997
-1.184998 5.7319312 68.650002
-1.035424 5.7361059 68.700005
-0.88627601 5.7444558 68.800003
-0.74765003 5.838387 69.925003
-5.5808182 5.9206729 69.100006
-5.4275408 5.9185309 69.075005
-5.2724638 5.914247 69.025002
-5.112042 5.9035358 68.900002
-4.9485669 5.8885412 68.724998
-4.78935 5.877831 68.600006
-4.6340599 5.8714051 68.525002
-4.4790988 5.8649788 68.450005
-4.3260479 5.8606939 68.400002
-4.1732159 5.856411 68.350006
-4.0206032 5.8521261 68.300003
-3.869626 5.8499851 68.275002
-3.7173951 5.8456998 68.225006
-3.5666921 5.8435578 68.200005
-3.4160981 5.8414159 68.175003
-3.2656131 5.8392739 68.150002
-3.115238 5.837132 68.125
-2.964972 5.83499 68.100006
-2.81585 5.83499 68.100006
-2.666728 5.83499 68.100006
-2.5185299 5.837132 68.125
-2.3702221 5.8392739 68.150002
-2.22262 5.8435578 68.200005
-2.0747981 5.8478422 68.25
-1.9267581 5.8521261 68.300003
-1.778499 5.856411 68.350006
-1.6306159 5.8628368 68.425003
-1.4824049 5.8692641 68.500008
-1.333866 5.875689 68.574997
-1.184998 5.8821149 68.650002
-1.035424 5.8864002 68.700005
-0.899158 5.9806499 69.800003
-0.74765003 5.9913611 69.925003
-5.57476 6.0652509 69.025002
-5.421648 6.0630541 69.000008
-5.2629161 6.0542669 68.900002
-5.0990582 6.0388899 68.724998
-4.9395671 6.0279059 68.600006
-4.7823682 6.0191188 68.500008
-4.6289878 6.0147262 68.450005
-4.4758282 6.0103321 68.400002
-4.3244672 6.0081348 68.375
-4.171689 6.0037422 68.325005
-4.0206032 6.001545 68.300003
-3.869626 5.9993482 68.275002
-3.7187569 5.9971509 68.25
-3.5679989 5.9949541 68.225006
-3.4160981 5.990561 68.175003
-3.2656131 5.9883642 68.150002
-3.115238 5.986167 68.125
-2.964972 5.9839711 68.100006
-2.814816 5.9817739 68.075005
-2.6657491 5.9817739 68.075005
-2.516681 5.9817739 68.075005
-2.3684831 5.9839711 68.100006
-2.2209899 5.9883642 68.150002
-2.073278 5.9927578 68.200005
-1.925347 5.9971509 68.25
-1.777848 6.0037422 68.325005
-1.63002 6.0103321 68.400002
-1.481864 6.016922 68.474998
-1.333866 6.0257092 68.574997
-1.184566 6.0301032 68.625
-1.035424 6.0366931 68.700005
-0.89980203 6.1377439 69.850006
-0.747383 6.142138 69.900009
-5.5707221 6.2117519 68.974998
-5.4137902 6.204998 68.900002
-5.2533679 6.1937408 68.775002
-5.093493 6.1824832 68.650002
-4.934166 6.171226 68.525002
-4.780622 6.1667228 68.474998
-4.625607 6.1599689 68.400002
-4.4741921 6.1577182 68.375
-4.322886 6.1554661 68.350006
-4.171689 6.153214 68.325005
-4.0206032 6.1509628 68.300003
-3.869626 6.1487122 68.275002
-3.7187569 6.1464601 68.25
-3.5679989 6.1442089 68.225006
-3.417351 6.1419568 68.200005
-3.2668109 6.1397061 68.175003
-3.115238 6.1352029 68.125
-2.964972 6.1329522 68.100006
-2.814816 6.1307001 68.075005
-2.6647699 6.128448 68.050003
-2.5157571 6.128448 68.050003
-2.366744 6.128448 68.050003
-2.2193611 6.1329522 68.100006
-2.071758 6.137454 68.150002
-1.924642 6.1442089 68.225006
-1.777197 6.1509628 68.300003
-1.63002 6.1599689 68.400002
-1.481864 6.1667228 68.474998
-1.333866 6.1757288 68.574997
-1.184566 6.180232 68.625
-1.035424 6.186986 68.700005
-0.89980203 6.2905531 69.850006
-0.747383 6.2950559 69.900009
-5.723835 6.364954 69.000008
-5.5687032 6.360342 68.950005
-5.409862 6.3511171 68.850006
-5.2495489 6.3395872 68.724998
-5.0897841 6.3280559 68.600006
-4.9323659 6.318831 68.500008
-4.777132 6.311913 68.425003
-4.6239161 6.3073001 68.375
-4.4725561 6.3049941 68.350006
-4.3213038 6.3026881 68.325005
-4.1701632 6.3003821 68.300003
-4.0191312 6.2980762 68.275002
-3.8682079 6.2957702 68.25
-3.7187569 6.2957702 68.25
-3.5679989 6.2934642 68.225006
-3.417351 6.2911582 68.200005
-3.2668109 6.2888522 68.175003
-3.115238 6.2842388 68.125
-2.9638841 6.2796259 68.075005
-2.8137829 6.2773199 68.050003
-2.6637909 6.2750139 68.025002
-2.514833 6.2750139 68.025002
-2.365875 6.2750139 68.025002
-2.2185459 6.2796259 68.075005
-2.070998 6.2842388 68.125
-1.923937 6.2911582 68.200005
-1.777197 6.3003821 68.300003
-1.629424 6.3073001 68.375
-1.481864 6.316525 68.474998
-1.333866 6.3257489 68.574997
-1.184998 6.3326678 68.650002
-1.0358011 6.3395872 68.724998
-0.89947999 6.4410572 69.825005
-0.74711502 6.4456692 69.875
-0.59431899 6.4479752 69.900009
-5.723835 6.5159039 69.000008
-5.5666838 6.508821 68.925003
-5.407897 6.4993782 68.824997
-5.2476401 6.4875741 68.700005
-5.0897841 6.4781308 68.600006
-4.9323659 6.4686871 68.500008
-4.777132 6.4616051 68.425003
-4.6239161 6.456882 68.375
-4.4709201 6.4521608 68.325005
-4.3197231 6.4498 68.300003
-4.1686368 6.4474401 68.275002
-4.0176592 6.4450779 68.25
-3.866791 6.442718 68.225006
-3.7173951 6.442718 68.225006
-3.5666921 6.4403572 68.200005
-3.4160981 6.4379959 68.175003
-3.2656131 6.4356351 68.150002
-3.114095 6.430913 68.100006
-2.9638841 6.4285531 68.075005
-2.8127489 6.423831 68.025002
-2.662812 6.4214702 68
-2.5139079 6.4214702 68
-2.365005 6.4214702 68
-2.217731 6.4261918 68.050003
-2.070998 6.4332752 68.125
-1.923937 6.4403572 68.200005
-1.777197 6.4498 68.300003
-1.63002 6.4592438 68.400002
-1.4824049 6.4686871 68.500008
-1.334838 6.4804912 68.625
-1.185429 6.4852128 68.675003
-1.038062 6.5040998 68.875
-0.89883602 6.5890889 69.775002
-0.74684799 6.5961719 69.850006
-0.59431899 6.600894 69.900009
-5.723835 6.666853 69.000008
-5.5666838 6.6596069 68.925003
-5.407897 6.6499438 68.824997
-5.2476401 6.637867 68.700005
-5.0897841 6.6282048 68.600006
-4.9323659 6.6185431 68.500008
-4.777132 6.6112971 68.425003
-4.6222262 6.6040502 68.350006
-4.4692841 6.5992179 68.300003
-4.3181419 6.5968032 68.275002
-4.16711 6.594388 68.25
-4.0161881 6.5919719 68.225006
-3.865375 6.5895572 68.200005
-3.716033 6.5895572 68.200005
-3.5653839 6.587141 68.175003
-3.414845 6.5847249 68.150002
-3.264415 6.5823102 68.125
-3.112952 6.5774779 68.075005
-2.962795 6.5750642 68.050003
-2.8117149 6.5702319 68
-2.661833 6.5678158 67.975006
-2.512984 6.5678158 67.975006
-2.365005 6.5702319 68
-2.217731 6.5750642 68.050003
-2.070998 6.5823102 68.125
-1.923937 6.5895572 68.200005
-1.777197 6.5992179 68.300003
-1.6306159 6.6112971 68.425003
-1.483487 6.623374 68.550003
-1.335811 6.6354518 68.675003
-1.187155 6.6451139 68.775002
-1.047105 6.7127481 69.474998
-0.89851397 6.7393188 69.750008
-0.74658102 6.7465658 69.825005
-0.59410602 6.7513971 69.875
-5.723835 6.8178029 69.000008
-5.5666838 6.8103929 68.925003
-5.407897 6.8005109 68.824997
-5.2495489 6.7906308 68.724998
-5.0897841 6.7782798 68.600006
-4.9323659 6.7683988 68.500008
-4.777132 6.7609892 68.425003
-4.6222262 6.7535782 68.350006
-4.4692841 6.7486382 68.300003
-4.3165612 6.7436972 68.25
-4.1655841 6.7412271 68.225006
-4.0147161 6.7387571 68.200005
-3.8639579 6.7362871 68.175003
-3.713309 6.7338161 68.150002
-3.5627699 6.7313461 68.125
-3.4123399 6.7288761 68.100006
-3.2620201 6.7264051 68.075005
-3.111809 6.7239351 68.050003
-2.960618 6.7189951 68
-2.8106811 6.7165251 67.975006
-2.661833 6.7165251 67.975006
-2.512984 6.7165251 67.975006
-2.365005 6.7189951 68
-2.217731 6.7239351 68.050003
-2.070998 6.7313461 68.125
-1.924642 6.7412271 68.225006
-1.778499 6.7535782 68.350006
-1.632403 6.7683988 68.500008
-1.485651 6.7832198 68.650002
-1.337756 6.7955718 68.775002
-1.190176 6.8128629 68.950005
-1.047859 6.869678 69.525002
-0.89819199 6.8894401 69.724998
-0.74631298 6.8968511 69.800003
-0.59410602 6.9042611 69.875
-0.441728 6.9141421 69.974998
-5.723835 6.9687538 69.000008
-5.5666838 6.9611788 68.925003
-5.407897 6.9510789 68.824997
-5.2495489 6.940979 68.724998
-5.0897841 6.9283552 68.600006
-4.934166 6.9207802 68.525002
-4.777132 6.9106798 68.425003
-4.6239161 6.9056301 68.375
-4.4692841 6.898056 68.300003
-4.3165612 6.8930058 68.25
-4.1640582 6.8879561 68.200005
-4.0132451 6.8854318 68.175003
-3.862541 6.882906 68.150002
-3.711947 6.8803821 68.125
-3.5614619 6.8778572 68.100006
-3.411087 6.8753319 68.075005
-3.259624 6.8702822 68.025002
-3.1095221 6.8677568 68
-2.9595301 6.865232 67.975006
-2.809648 6.8627081 67.950005
-2.6608541 6.8627081 67.950005
-2.512984 6.865232 67.975006
-2.365875 6.8702822 68.025002
-2.2185459 6.8753319 68.075005
-2.071758 6.882906 68.150002
-1.926053 6.8955312 68.275002
-1.7798001 6.908155 68.400002
-1.634191 6.9258289 68.574997
-1.487815 6.9435039 68.750008
-1.340187 6.9586539 68.900002
-1.1923341 6.9763279 69.075005
-1.047482 7.0192518 69.500008
-0.89787 7.0394511 69.700005
-0.74604601 7.0470262 69.775002
-0.59431899 7.0596499 69.900009
-5.719687 7.1145439 68.950005
-5.5646648 7.1093841 68.900002
-5.4059329 7.0990658 68.800003
-5.2476401 7.088748 68.700005
-5.0897841 7.0784292 68.600006
-4.934166 7.0706902 68.525002
-4.7788768 7.062952 68.450005
-4.6239161 7.055213 68.375
-4.4709201 7.0500541 68.325005
-4.3165612 7.042315 68.25
-4.1640582 7.0371561 68.200005
-4.0132451 7.0345769 68.175003
-3.861124 7.029417 68.125
-3.7105851 7.0268378 68.100006
-3.558847 7.021678 68.050003
-3.408582 7.0190992 68.025002
-3.258425 7.0165191 68
-3.1083789 7.0139389 67.975006
-2.958442 7.0113602 67.950005
-2.809648 7.0113602 67.950005
-2.6608541 7.0113602 67.950005
-2.512984 7.0139389 67.975006
-2.365875 7.0190992 68.025002
-2.2193611 7.0268378 68.100006
-2.073278 7.0371561 68.200005
-1.9274631 7.0500541 68.325005
-1.782402 7.0681109 68.500008
-1.636574 7.0861678 68.675003
-1.4894381 7.101645 68.824997
-1.341646 7.1171231 68.974998
-1.193197 7.1326008 69.125
-1.047105 7.168715 69.474998
-0.89819199 7.1945109 69.724998
-0.74631298 7.20225 69.800003
-5.7176132 7.2627511 68.925003
-5.560627 7.254848 68.850006
-5.4020052 7.2443099 68.750008
-5.2457299 7.2364082 68.675003
-5.0879278 7.2258701 68.574997
-4.934166 7.220602 68.525002
-4.7788768 7.212698 68.450005
-4.625607 7.2074299 68.400002
-4.4709201 7.1995268 68.325005
-4.3181419 7.1942592 68.275002
-4.1655841 7.1889901 68.225006
-4.0132451 7.183722 68.175003
-3.861124 7.178452 68.125
-3.7092221 7.1731839 68.075005
-3.5575399 7.1679158 68.025002
-3.4073291 7.1652808 68
-3.2572279 7.1626468 67.975006
-3.1072359 7.1600132 67.950005
-2.9573531 7.1573792 67.925003
-2.808614 7.1573792 67.925003
-2.6608541 7.1600132 67.950005
-2.5139079 7.1652808 68
-2.366744 7.1705499 68.050003
-2.220176 7.178452 68.125
-2.0747981 7.1916242 68.25
-1.929579 7.2074299 68.400002
-1.784353 7.2258701 68.574997
-1.637765 7.2416759 68.724998
-1.49052 7.2574821 68.875
-1.342132 7.2706542 69.000008
-1.194491 7.291728 69.200005
-1.047482 7.323339 69.500008
-0.89819199 7.3470469 69.724998
-0.74765003 7.3681221 69.925003
-5.711391 7.4054689 68.850006
-5.5565882 7.4000912 68.800003
-5.3980761 7.3893352 68.700005
-5.2419109 7.381268 68.625
-5.0860739 7.3732009 68.550003
-4.9323659 7.3678231 68.500008
-4.7788768 7.3624449 68.450005
-4.625607 7.3570671 68.400002
-4.4725561 7.3516898 68.350006
-4.3197231 7.3463111 68.300003
-4.16711 7.3409328 68.25
-4.0132451 7.3328671 68.175003
-3.861124 7.3274879 68.125
-3.7092221 7.3221102 68.075005
-3.5575399 7.3167319 68.025002
-3.4073291 7.314044 68
-3.2560301 7.3086662 67.950005
-3.1060929 7.3059769 67.925003
-2.9573531 7.3059769 67.925003
-2.808614 7.3059769 67.925003
-2.6608541 7.3086662 67.950005
-2.5139079 7.314044 68
-2.367614 7.3221102 68.075005
-2.2218051 7.3328671 68.175003
-2.076318 7.3463111 68.300003
-1.93099 7.3624449 68.450005
-1.785004 7.3785801 68.600006
-1.638361 7.3947129 68.750008
-1.491061 7.4108472 68.900002
-1.3426189 7.4242921 69.025002
-1.195786 7.4511819 69.275002
-1.0489891 7.4861379 69.600006
-0.899158 7.5076499 69.800003
-5.874928 7.5725532 69.000008
-5.7051702 7.5478601 68.775002
-5.5505309 7.5423722 68.724998
-5.394146 7.5341411 68.650002
-5.238091 7.5259099 68.574997
-5.084219 7.5204229 68.525002
-4.9305658 7.514935 68.474998
-4.777132 7.509449 68.425003
-4.625607 7.5067039 68.400002
-4.4725561 7.5012169 68.350006
-4.3197231 7.495729 68.300003
-4.16711 7.490242 68.25
-4.0147161 7.484755 68.200005
-3.862541 7.4792681 68.150002
-3.7105851 7.4737802 68.100006
-3.558847 7.4682932 68.050003
-3.4073291 7.4628062 68
-3.2572279 7.460062 67.975006
-3.1072359 7.4573178 67.950005
-2.9573531 7.4545751 67.925003
-2.809648 7.4573178 67.950005
-2.661833 7.460062 67.975006
-2.514833 7.465549 68.025002
-2.3684831 7.4737802 68.100006
-2.22262 7.484755 68.200005
-2.0770781 7.4984732 68.325005
-1.931695 7.514935 68.474998
-1.7856539 7.5313978 68.625
-1.638957 7.5478601 68.775002
-1.491603 7.564322 68.925003
-1.344077 7.5835271 69.100006
-1.1992379 7.6246819 69.474998
-1.050496 7.649375 69.700005
-0.90044701 7.6713262 69.900009
-5.9536862 7.8270421 69.925003
-5.6989479 7.6899209 68.700005
-5.5444741 7.6843252 68.650002
-5.3902178 7.6787291 68.600006
-5.2361822 7.673131 68.550003
-5.082365 7.6675358 68.500008
-4.9287658 7.6619382 68.450005
-4.777132 7.6591401 68.425003
-4.6239161 7.653543 68.375
-4.4725561 7.6507449 68.350006
-4.3197231 7.6451478 68.300003
-4.16711 7.6395512 68.25
-4.0161881 7.6367531 68.225006
-3.8639579 7.631156 68.175003
-3.711947 7.6255598 68.125
-3.560154 7.6199622 68.075005
-3.408582 7.6143661 68.025002
-3.2572279 7.6087689 67.975006
-3.1072359 7.6059709 67.950005
-2.958442 7.6059709 67.950005
-2.8106811 7.6087689 67.975006
-2.662812 7.611567 68
-2.5157571 7.6171651 68.050003
-2.3693531 7.6255598 68.125
-2.223434 7.6367531 68.225006
-2.0778379 7.6507449 68.350006
-1.9324 7.6675358 68.500008
-1.786305 7.6843252 68.650002
-1.640148 7.7039142 68.824997
-1.4932261 7.7235031 69.000008
-1.347968 7.757082 69.300003
-1.2022589 7.7962599 69.650002
-1.051627 7.8102512 69.775002
-0.900769 7.8270421 69.925003
-5.7653108 7.9315138 69.500008
-5.5384159 7.8259511 68.574997
-5.3862891 7.8230972 68.550003
-5.2323632 7.8173909 68.500008
-5.0805092 7.814538 68.474998
-4.9269662 7.8088322 68.425003
-4.7753859 7.8059778 68.400002
-4.6239161 7.8031259 68.375
-4.4709201 7.7974191 68.325005
-4.3197231 7.7945671 68.300003
-4.16711 7.7888598 68.25
-4.0161881 7.7860069 68.225006
-3.8639579 7.780302 68.175003
-3.713309 7.7774482 68.150002
-3.5614619 7.7717419 68.100006
-3.4098339 7.766036 68.050003
-3.259624 7.7631831 68.025002
-3.1095221 7.7603302 68
-2.9595301 7.7574768 67.975006
-2.8117149 7.7603302 68
-2.6647699 7.766036 68.050003
-2.517606 7.7717419 68.100006
-2.3710921 7.780302 68.175003
-2.225064 7.7917142 68.275002
-2.0793581 7.8059778 68.400002
-1.933105 7.8202438 68.525002
-1.787606 7.8402162 68.700005
-1.641935 7.86304 68.900002
-1.497013 7.894424 69.175003
-1.351858 7.9315138 69.500008
-1.203122 7.9543381 69.700005
-1.052003 7.9657502 69.800003
-0.90109098 7.9828691 69.950005
-5.5343781 7.9701548 68.525002
-5.3823609 7.967248 68.500008
-5.230453 7.9643388 68.474998
-5.0786538 7.961432 68.450005
-4.9269662 7.9585242 68.425003
-4.7736411 7.9527092 68.375
-4.6222262 7.949801 68.350006
-4.4692841 7.943985 68.300003
-4.3181419 7.9410782 68.275002
-4.16711 7.938169 68.25
-4.0161881 7.9352622 68.225006
-3.865375 7.932354 68.200005
-3.7146709 7.9294472 68.175003
-3.5627699 7.9236312 68.125
-3.4123399 7.920723 68.100006
-3.2608221 7.914907 68.050003
-3.110666 7.9120002 68.025002
-2.9617071 7.9120002 68.025002
-2.8137829 7.914907 68.050003
-2.666728 7.920723 68.100006
-2.519454 7.926538 68.150002
-2.3736999 7.938169 68.25
-2.2275081 7.949801 68.350006
-2.080878 7.961432 68.450005
-1.93381 7.973062 68.550003
-1.789557 7.9992318 68.775002
-1.647893 8.0428486 69.150002
-1.501882 8.0719261 69.400002
-1.353317 8.0922813 69.575005
-1.203554 8.1097269 69.724998
-1.05238 8.1213589 69.825005
-0.90109098 8.1358967 69.950005
-5.6090851 8.2296762 69.450005
-5.3823609 8.1171036 68.500008
-5.230453 8.1141415 68.474998
-5.0786538 8.1111784 68.450005
-4.9269662 8.1082153 68.425003
-4.7736411 8.1022911 68.375
-4.6205349 8.0963659 68.325005
-4.467649 8.0904408 68.275002
-4.3165612 8.0874786 68.25
-4.1655841 8.0845165 68.225006
-4.0147161 8.0815535 68.200005
-3.865375 8.0815535 68.200005
-3.716033 8.0815535 68.200005
-3.5653839 8.0785913 68.175003
-3.414845 8.0756283 68.150002
-3.2632179 8.0697041 68.100006
-3.114095 8.0697041 68.100006
-2.9638841 8.066741 68.075005
-2.81585 8.0697041 68.100006
-2.6686859 8.0756283 68.150002
-2.522227 8.0845165 68.225006
-2.376308 8.0963659 68.325005
-2.2299521 8.1082153 68.425003
-2.083158 8.1200657 68.525002
-1.935926 8.1319151 68.625
-1.7947609 8.1733894 68.974998
-1.651468 8.2119007 69.300003
-1.503505 8.2326384 69.474998
-1.3542891 8.2504129 69.625
-1.203985 8.2652254 69.750008
-1.052757 8.2770748 69.850006
-0.90141302 8.2918863 69.974998
-5.6212001 8.3997145 69.600006
-5.3823609 8.2669601 68.500008
-5.2323632 8.2669601 68.500008
-5.0805092 8.2639418 68.474998
-4.9269662 8.2579088 68.425003
-4.7736411 8.251873 68.375
-4.6205349 8.2458391 68.325005
-4.467649 8.2398052 68.275002
-4.31498 8.2337704 68.225006
-4.1640582 8.2307539 68.200005
-4.0147161 8.2307539 68.200005
-3.866791 8.2337704 68.225006
-3.7173951 8.2337704 68.225006
-3.5666921 8.2307539 68.200005
-3.417351 8.2307539 68.200005
-3.2668109 8.2277374 68.175003
-3.1163809 8.224719 68.150002
-2.967149 8.224719 68.150002
-2.8199849 8.2307539 68.200005
-2.672601 8.2367878 68.25
-2.525923 8.2458391 68.325005
-2.378917 8.2548904 68.400002
-2.2323971 8.2669601 68.500008
-2.085438 8.2790279 68.600006
-1.939453 8.2971315 68.750008
-1.799315 8.3454046 69.150002
-1.653255 8.3725595 69.375
-1.5045871 8.3906622 69.525002
-1.3542891 8.4027309 69.625
-1.203985 8.4178162 69.750008
-1.052757 8.4298849 69.850006
-5.6252379 8.5581188 69.650002
-5.3862891 8.4229584 68.550003
-5.234272 8.4198866 68.525002
-5.082365 8.4168158 68.500008
-4.9287658 8.4106712 68.450005
-4.7753859 8.4045277 68.400002
-4.6205349 8.3953123 68.325005
-4.467649 8.3891687 68.275002
-4.31498 8.3830252 68.225006
-4.1640582 8.3799534 68.200005
-4.0161881 8.3830252 68.225006
-3.8682079 8.386096 68.25
-3.7187569 8.386096 68.25
-3.5693071 8.386096 68.25
-3.4198561 8.386096 68.25
-3.2704051 8.386096 68.25
-3.1198111 8.3830252 68.225006
-2.971503 8.386096 68.25
-2.823086 8.3891687 68.275002
-2.675539 8.3953123 68.325005
-2.5286961 8.4045277 68.400002
-2.382395 8.4168158 68.500008
-2.235656 8.4291029 68.600006
-2.0892379 8.4444609 68.724998
-1.942979 8.4628925 68.875
-1.801266 8.5058985 69.224998
-1.654447 8.5304728 69.425003
-1.5045871 8.5427608 69.525002
-1.354775 8.5581188 69.650002
-1.204417 8.5734787 69.775002
-5.637352 8.72925 69.800003
-5.3902178 8.5791779 68.600006
-5.238091 8.5760508 68.574997
-5.0860739 8.5729237 68.550003
-4.9323659 8.5666714 68.500008
-4.777132 8.557292 68.425003
-4.6222262 8.5479126 68.350006
-4.467649 8.5385323 68.275002
-4.31498 8.532279 68.225006
-4.1655841 8.532279 68.225006
-4.0161881 8.532279 68.225006
-3.869626 8.5385323 68.275002
-3.721482 8.5416584 68.300003
-3.5732291 8.5447845 68.325005
-3.423614 8.5447845 68.325005
-3.273999 8.5447845 68.325005
-3.1243839 8.5447845 68.325005
-2.975857 8.5479126 68.350006
-2.8272209 8.5510387 68.375
-2.679455 8.557292 68.425003
-2.5333171 8.5697985 68.525002
-2.3858731 8.5791779 68.600006
-2.2397289 8.5948095 68.724998
-2.0930381 8.6104422 68.850006
-1.94721 8.632328 69.025002
-1.802567 8.6635933 69.275002
-1.655043 8.6854782 69.450005
-1.505128 8.6979847 69.550003
-1.355262 8.7136183 69.675003
-1.2052799 8.7323771 69.825005
-5.6434102 8.8914938 69.875
-5.3921828 8.7324333 68.625
-5.2400012 8.7292519 68.600006
-5.0879278 8.7260704 68.574997
-4.934166 8.7197084 68.525002
-4.7788768 8.710165 68.450005
-4.6239161 8.7006207 68.375
-4.4692841 8.6910772 68.300003
-4.3165612 8.6847153 68.25
-4.16711 8.6847153 68.25
-4.0191312 8.6878967 68.275002
-3.871042 8.6910772 68.300003
-3.724206 8.6974401 68.350006
-3.575844 8.7006207 68.375
-3.427372 8.7038021 68.400002
-3.2775929 8.7038021 68.400002
-3.128957 8.7069836 68.425003
-2.980211 8.710165 68.450005
-2.831356 8.7133455 68.474998
-2.6843491 8.7228899 68.550003
-2.537014 8.7324333 68.625
-2.3902199 8.7451582 68.724998
-2.2429881 8.7578821 68.824997
-2.096838 8.7769699 68.974998
-1.950031 8.7960577 69.125
-1.8038681 8.8215075 69.325005
-1.655638 8.8405943 69.474998
-1.50621 8.8565006 69.600006
-1.356721 8.8755884 69.750008
-5.394146 8.8857985 68.650002
-5.2438202 8.8857985 68.650002
-5.091639 8.8825617 68.625
-4.9377661 8.87609 68.574997
-4.7823682 8.8663836 68.500008
-4.625607 8.8534393 68.400002
-4.4725561 8.8469677 68.350006
-4.3197231 8.8404951 68.300003
-4.1686368 8.8372593 68.275002
-4.0206032 8.8404951 68.300003
-3.8738761 8.8469677 68.350006
-3.7269311 8.8534393 68.400002
-3.579766 8.859911 68.450005
-3.4311299 8.8631468 68.474998
-3.2823851 8.8663836 68.500008
-3.1335299 8.8696194 68.525002
-2.984565 8.8728542 68.550003
-2.836524 8.8793268 68.600006
-2.6882651 8.8857985 68.650002
-2.541636 8.8987427 68.750008
-2.393698 8.9084492 68.824997
-2.2462471 8.9213934 68.925003
-2.099118 8.9375715 69.050003
-1.952147 8.9569883 69.200005
-1.805169 8.9796391 69.375
-1.657426 9.0022907 69.550003
-1.5089149 9.0249424 69.724998
-5.482543 9.1840591 69.775002
-5.2457299 9.0392742 68.675003
-5.093493 9.0359821 68.650002
-4.9395671 9.0294018 68.600006
-4.7841129 9.0195293 68.525002
-4.6289878 9.0096579 68.450005
-4.4741921 8.9997864 68.375
-4.3213038 8.9932051 68.325005
-4.171689 8.9932051 68.325005
-4.0235462 8.9964952 68.350006
-3.8767099 9.0030766 68.400002
-3.7310171 9.012949 68.474998
-3.583689 9.0195293 68.525002
-3.436141 9.0261106 68.574997
-3.2871759 9.0294018 68.600006
-3.138103 9.032692 68.625
-2.9900069 9.0392742 68.675003
-2.8406589 9.0425644 68.700005
-2.6931601 9.0524359 68.775002
-2.5444081 9.0590162 68.824997
-2.397176 9.0721798 68.925003
-2.249506 9.0853415 69.025002
-2.101398 9.0985041 69.125
-1.954263 9.118248 69.275002
-1.807771 9.1445723 69.474998
-1.662192 9.180769 69.750008
-5.3163862 9.3132887 69.600006
-5.0972028 9.1928577 68.700005
-4.9431672 9.1861677 68.650002
-4.7876039 9.1761312 68.574997
-4.63237 9.1660957 68.500008
-4.4774642 9.1560602 68.425003
-4.3260479 9.1527138 68.400002
-4.1747432 9.1493692 68.375
-4.0279608 9.1560602 68.425003
-3.88096 9.1627502 68.474998
-3.7351041 9.1727858 68.550003
-3.587611 9.1794767 68.600006
-3.4411521 9.1895123 68.675003
-3.2919681 9.1928577 68.700005
-3.1438191 9.1995487 68.750008
-2.9943609 9.2028942 68.775002
-2.844794 9.2062387 68.800003
-2.6960969 9.2129297 68.850006
-2.5471809 9.2196198 68.900002
-2.3989151 9.2296553 68.974998
-2.2511361 9.2430372 69.075005
-2.1029179 9.2564192 69.175003
-1.9570839 9.2831802 69.375
-1.8142771 9.3300142 69.724998
-5.147285 9.4349499 69.375
-4.950367 9.3499508 68.750008
-4.79284 9.3363504 68.650002
-4.6374412 9.3261499 68.574997
-4.4823709 9.3159513 68.500008
-4.3292098 9.3091507 68.450005
-4.1793218 9.3091507 68.450005
-4.0323758 9.3159513 68.500008
-3.885211 9.3227501 68.550003
-3.7391911 9.3329515 68.625
-3.5928409 9.3431511 68.700005
-3.44491 9.3499508 68.750008
-3.2967601 9.3567495 68.800003
-3.147248 9.3601503 68.824997
-2.9976261 9.3635511 68.850006
-2.8478949 9.36695 68.875
-2.699034 9.3737507 68.925003
-2.5490291 9.3771505 68.950005
-2.4006541 9.387351 69.025002
-2.251951 9.3975506 69.100006
-2.1044381 9.4145498 69.224998
-1.964136 9.4689503 69.625
-1.81818 9.5029497 69.875
-4.9863701 9.5694485 69.250008
-4.8137851 9.5279913 68.950005
-4.6475849 9.4968987 68.724998
-4.488915 9.4796267 68.600006
-4.335535 9.4727163 68.550003
-4.1854272 9.4727163 68.550003
-4.0367908 9.4761705 68.574997
-3.889462 9.4830799 68.625
-3.7432771 9.4934444 68.700005
-3.5967629 9.503809 68.775002
-3.448668 9.5107174 68.824997
-3.300354 9.5176268 68.875
-3.1506779 9.5210819 68.900002
-3.0008919 9.5245371 68.925003
-2.8499629 9.5245371 68.925003
-2.7000129 9.5279913 68.950005
-2.549953 9.5314465 68.974998
-2.4006541 9.5383558 69.025002
-2.2511361 9.5452652 69.075005
-2.103678 9.5625381 69.200005
-1.965547 9.6281776 69.675003
-1.81883 9.6592693 69.900009
-4.8347292 9.7209444 69.250008
-4.672945 9.6998882 69.100006
-4.5052738 9.6647949 68.850006
-4.3450222 9.6437387 68.700005
-4.1915331 9.6367197 68.650002
-4.0426779 9.6402292 68.675003
-3.893713 9.6437387 68.700005
-3.746001 9.6507578 68.750008
-3.5980711 9.6577759 68.800003
-3.4499209 9.6647949 68.850006
-3.3015521 9.671813 68.900002
-3.1518209 9.6753225 68.925003
-3.0008919 9.6753225 68.925003
-2.850996 9.6788321 68.950005
-2.7000129 9.6788321 68.950005
-2.549953 9.6823416 68.974998
-2.399785 9.6858521 69.000008
-2.2503209 9.6928692 69.050003
-2.1006379 9.6998882 69.100006
-1.9592 9.7490196 69.450005
-4.0456209 9.797595 68.724998
-2.1029179 2.7491119 69.175003
-1.952147 2.7501061 69.200005
-1.802567 2.7530861 69.275002
-1.652064 2.7550731 69.325005
-2.4050009 2.8993959 69.150002
-2.2535801 2.8993959 69.150002
-2.1029179 2.900445 69.175003
-1.952147 2.9014931 69.200005
-1.801917 2.90359 69.250008
-1.652064 2.906734 69.325005
-1.501882 2.909879 69.400002
-1.360611 2.93294 69.950005
-2.9976261 3.0374401 68.850006
-2.850996 3.041851 68.950005
-2.7039289 3.046263 69.050003
-2.554574 3.0484691 69.100006
-2.4041319 3.049572 69.125
-2.251951 3.0484691 69.100006
-2.101398 3.049572 69.125
-1.950737 3.0506749 69.150002
-1.801266 3.053983 69.224998
-1.651468 3.057292 69.300003
-1.501341 3.060601 69.375
-1.353803 3.0705271 69.600006
-3.2859781 3.175328 68.574997
-3.139246 3.1788001 68.650002
-2.993273 3.1834309 68.750008
-2.8478949 3.189219 68.875
-2.7019711 3.1950071 69.000008
-2.5536511 3.1984799 69.075005
-2.4023931 3.1984799 69.075005
-2.249506 3.1961651 69.025002
-2.0983579 3.1961651 69.025002
-1.948621 3.1984799 69.075005
-1.799966 3.20311 69.175003
-1.650872 3.207741 69.275002
-1.501341 3.2123711 69.375
-1.3542891 3.223947 69.625
-3.579766 3.3192861 68.450005
-3.429877 3.3192861 68.450005
-3.2823851 3.3217111 68.500008
-3.1346731 3.3241351 68.550003
-2.9878299 3.3277719 68.625
-2.836524 3.32656 68.600006
-2.685328 3.3253479 68.574997
-2.5333171 3.3229229 68.525002
-2.3841341 3.3241351 68.550003
-2.235656 3.32656 68.600006
-2.0892379 3.3326221 68.724998
-1.943684 3.3411069 68.900002
-1.796713 3.348382 69.050003
-1.649085 3.355655 69.200005
-1.501882 3.3653541 69.400002
-1.353803 3.375052 69.600006
-3.9107161 3.496907 69.000008
-3.733742 3.4728341 68.525002
-3.5771511 3.4664979 68.400002
-3.4286251 3.467766 68.425003
-3.278791 3.467766 68.425003
-3.1301 3.469033 68.450005
-2.9812989 3.4703 68.474998
-2.831356 3.4703 68.474998
-2.681412 3.4703 68.474998
-2.5314691 3.4703 68.474998
-2.382395 3.4715669 68.500008
-2.234026 3.4741011 68.550003
-2.0861981 3.4779019 68.625
-1.938747 3.48297 68.724998
-1.791509 3.489305 68.850006
-1.644914 3.498173 69.025002
-1.499718 3.51211 69.300003
-1.351372 3.5209789 69.474998
-1.207006 3.543786 69.925003
-4.0662251 3.6518221 69.075005
-3.9092989 3.6465349 68.974998
-3.7269311 3.6161361 68.400002
-3.575844 3.614814 68.375
-3.4261191 3.614814 68.375
-3.2763951 3.614814 68.375
-3.1266699 3.614814 68.375
-2.978034 3.6161361 68.400002
-2.829288 3.6174581 68.425003
-2.680433 3.6187789 68.450005
-2.530545 3.6187789 68.450005
-2.381525 3.620101 68.474998
-2.233211 3.622745 68.525002
-2.0846779 3.6253879 68.574997
-1.936631 3.629353 68.650002
-1.7889071 3.63464 68.750008
-1.641935 3.64257 68.900002
-1.4953901 3.6531429 69.100006
-1.348454 3.6650391 69.325005
-1.19967 3.6742899 69.500008
-4.3782258 3.8111939 69.224998
-4.2205348 3.8056879 69.125
-4.0662251 3.8029361 69.075005
-3.9092989 3.79743 68.974998
-3.7269311 3.7657731 68.400002
-3.574537 3.763021 68.350006
-3.423614 3.7616439 68.325005
-3.273999 3.7616439 68.325005
-3.1243839 3.7616439 68.325005
-2.975857 3.763021 68.350006
-2.8272209 3.7643969 68.375
-2.6784749 3.7657731 68.400002
-2.530545 3.7685261 68.450005
-2.381525 3.769902 68.474998
-2.233211 3.772655 68.525002
-2.0846779 3.775408 68.574997
-1.936631 3.779537 68.650002
-1.788256 3.7836659 68.724998
-1.640744 3.7905481 68.850006
-1.4932261 3.7988069 69.000008
-1.346022 3.809818 69.200005
-1.196649 3.8167 69.325005
-1.048612 3.8304629 69.575005
-4.536356 3.9683599 69.325005
-4.3782258 3.962636 69.224998
-4.2205348 3.9569111 69.125
-4.0647531 3.9526179 69.050003
-3.9050479 3.944032 68.900002
-3.7282929 3.916842 68.425003
-3.574537 3.9125481 68.350006
-3.4223609 3.9096861 68.300003
-3.2716031 3.9082551 68.275002
-3.1232409 3.9096861 68.300003
-2.9747691 3.9111171 68.325005
-2.8272209 3.9139791 68.375
-2.6784749 3.915411 68.400002
-2.530545 3.918273 68.450005
-2.382395 3.9211349 68.500008
-2.233211 3.9225659 68.525002
-2.0846779 3.9254279 68.574997
-1.936631 3.9297211 68.650002
-1.788256 3.9340141 68.724998
-1.640744 3.94117 68.850006
-1.492684 3.9483249 68.974998
-1.344564 3.9569111 69.125
-1.194923 3.962636 69.224998
-1.044844 3.9683599 69.325005
-4.6966138 4.12745 69.450005
-4.536356 4.1200209 69.325005
-4.3782258 4.114078 69.224998
-4.219008 4.1066489 69.100006
-4.063282 4.1021919 69.025002
-3.8951299 4.084363 68.724998
-3.7282929 4.066534 68.425003
-3.5732291 4.0605898 68.325005
-3.421109 4.0576191 68.275002
-3.2704051 4.0561328 68.25
-3.122098 4.0576191 68.275002
-2.97368 4.059104 68.300003
-2.8261869 4.0620761 68.350006
-2.6784749 4.0650482 68.400002
-2.5314691 4.0695052 68.474998
-2.3832641 4.0724759 68.525002
-2.2348411 4.075448 68.574997
-2.0861981 4.0784202 68.625
-1.937337 4.0813909 68.675003
-1.7889071 4.0858488 68.750008
-1.640744 4.0917921 68.850006
-1.492144 4.0977349 68.950005
-1.343591 4.1051641 69.075005
-1.193628 4.109621 69.150002
-1.043714 4.1155639 69.250008
-4.8556738 4.2855458 69.550003
-4.6966138 4.2793841 69.450005
-4.536356 4.2716818 69.325005
-4.3766451 4.263979 69.200005
-4.2174821 4.256278 69.075005
-4.057395 4.247035 68.925003
-3.889462 4.228549 68.625
-3.7269311 4.214684 68.400002
-3.5732291 4.210063 68.325005
-3.4198561 4.205442 68.25
-3.269207 4.2039018 68.225006
-3.120954 4.205442 68.25
-2.97368 4.2085228 68.300003
-2.8261869 4.2116041 68.350006
-2.679455 4.2162261 68.425003
-2.5314691 4.219306 68.474998
-2.3841341 4.223927 68.550003
-2.235656 4.2270088 68.600006
-2.0869579 4.2300901 68.650002
-1.938042 4.233171 68.700005
-1.789557 4.237792 68.775002
-1.640744 4.242413 68.850006
-1.492144 4.2485752 68.950005
-1.343105 4.2547369 69.050003
-1.192765 4.2578182 69.100006
-1.042207 4.2608991 69.150002
-5.0133719 4.4424839 69.625
-4.853929 4.4361038 69.525002
-4.6949229 4.4297228 69.425003
-4.5347199 4.4217482 69.300003
-4.3734822 4.4121771 69.150002
-4.212903 4.402606 69.000008
-4.048564 4.3882499 68.775002
-3.883795 4.3722978 68.525002
-3.725569 4.3627272 68.375
-3.5719221 4.3579421 68.300003
-3.4186029 4.3531561 68.225006
-3.2680089 4.3515611 68.200005
-3.1198111 4.3531561 68.225006
-2.9725921 4.3563471 68.275002
-2.8251531 4.3595371 68.325005
-2.679455 4.3659182 68.425003
-2.532393 4.3707032 68.500008
-2.3850031 4.3754878 68.574997
-2.23647 4.3786788 68.625
-2.087718 4.3818688 68.675003
-1.938747 4.3850589 68.724998
-1.790208 4.3898439 68.800003
-1.640744 4.3930349 68.850006
-1.491603 4.39782 68.925003
-1.342132 4.402606 69.000008
-1.191902 4.4057961 69.050003
-1.041453 4.408987 69.100006
-0.90109098 4.463222 69.950005
-5.1676879 4.5964508 69.650002
-5.0097718 4.5915022 69.575005
-4.8521829 4.5865531 69.500008
-4.6898508 4.576653 69.350006
-4.5298119 4.5684042 69.224998
-4.3671579 4.5568552 69.050003
-4.2052698 4.5453062 68.875
-4.0412059 4.530458 68.650002
-3.88096 4.518909 68.474998
-3.724206 4.5106602 68.350006
-3.5693071 4.5040598 68.25
-3.417351 4.500761 68.200005
-3.2668109 4.4991112 68.175003
-3.1186681 4.500761 68.200005
-2.971503 4.5040598 68.25
-2.8251531 4.5090098 68.325005
-2.6784749 4.5139589 68.400002
-2.532393 4.5205588 68.500008
-2.3850031 4.5255079 68.574997
-2.2372849 4.530458 68.650002
-2.0884781 4.5337582 68.700005
-1.939453 4.5370569 68.750008
-1.790208 4.5403571 68.800003
-1.64134 4.5453062 68.875
-1.491603 4.5486059 68.925003
-1.341646 4.5519061 68.974998
-1.191471 4.5552049 69.025002
-1.0410759 4.5585051 69.075005
-0.89883602 4.604701 69.775002
-5.318295 4.7471189 69.625
-5.1621242 4.74371 69.575005
-5.0043712 4.738596 69.500008
-4.845201 4.7317781 69.400002
-4.6847801 4.7232561 69.275002
-4.5216331 4.7113242 69.100006
-4.3608332 4.701097 68.950005
-4.1991649 4.6891651 68.775002
-4.0382628 4.6772342 68.600006
-3.879544 4.667006 68.450005
-3.7228439 4.658484 68.325005
-3.5693071 4.6533689 68.25
-3.4160981 4.6482558 68.175003
-3.2668109 4.6482558 68.175003
-3.1175251 4.6482558 68.175003
-2.9704151 4.6516652 68.225006
-2.82412 4.6567788 68.300003
-2.6784749 4.6635971 68.400002
-2.532393 4.6704149 68.500008
-2.3850031 4.675529 68.574997
-2.2372849 4.6806421 68.650002
-2.0892379 4.6857562 68.724998
-1.940158 4.6891651 68.775002
-1.790858 4.692574 68.824997
-1.64134 4.6959829 68.875
-1.491603 4.6993918 68.925003
-1.3411601 4.701097 68.950005
-1.191039 4.7045059 69.000008
-1.040699 4.7079139 69.050003
-0.89626002 4.74371 69.575005
-5.3125658 4.8941579 69.550003
-5.156559 4.8906398 69.500008
-4.998971 4.8853631 69.425003
-4.8382201 4.8765659 69.300003
-4.6763258 4.8660111 69.150002
-4.51509 4.8554549 69.000008
-4.3545079 4.8449001 68.850006
-4.1945858 4.8343439 68.700005
-4.0367908 4.8255491 68.574997
-3.8781271 4.8149929 68.425003
-3.7228439 4.8079562 68.325005
-3.5679989 4.80092 68.225006
-3.4160981 4.797401 68.175003
-3.2668109 4.797401 68.175003
-3.1175251 4.797401 68.175003
-2.9704151 4.80092 68.225006
-2.82412 4.8061972 68.300003
-2.677496 4.8114748 68.375
-2.5314691 4.818512 68.474998
-2.3850031 4.8255491 68.574997
-2.2372849 4.8308258 68.650002
-2.0892379 4.8361039 68.724998
-1.940158 4.839622 68.775002
-1.790858 4.8431411 68.824997
-1.64134 4.8466592 68.875
-1.491061 4.8484182 68.900002
-1.3411601 4.8519368 68.950005
-1.191039 4.8554549 69.000008
-1.040323 4.857214 69.025002
-0.89239502 4.8748069 69.275002
-5.3087468 5.0426841 69.500008
-5.1509948 5.0372419 69.425003
-4.9935708 5.0317998 69.350006
-4.832984 5.0227299 69.224998
-4.6712542 5.011847 69.075005
-4.5101819 5.0009632 68.925003
-4.351346 4.9918938 68.800003
-4.193059 4.9828238 68.675003
-4.0353189 4.9737549 68.550003
-3.8781271 4.964685 68.425003
-3.7228439 4.9574289 68.325005
-3.5693071 4.9519868 68.25
-3.417351 4.948359 68.200005
-3.2668109 4.9465461 68.175003
-3.1175251 4.9465461 68.175003
-2.9704151 4.9501729 68.225006
-2.823086 4.9538021 68.275002
-2.676517 4.9592438 68.350006
-2.530545 4.9664989 68.450005
-2.3832641 4.971941 68.525002
-2.23647 4.979197 68.625
-2.0884781 4.9846382 68.700005
-1.939453 4.988266 68.750008
-1.790208 4.9918938 68.800003
-1.640744 4.995522 68.850006
-1.491061 4.9991488 68.900002
-1.340673 5.0009632 68.925003
-1.190608 5.004591 68.974998
-1.039946 5.0064049 69.000008
-0.88981903 5.011847 69.075005
-5.458971 5.1928582 69.474998
-5.3049278 5.19099 69.450005
-5.147285 5.1853838 69.375
-4.9881701 5.1779089 69.275002
-4.8277469 5.1685662 69.150002
-4.666183 5.1573548 69.000008
-4.5069098 5.1480122 68.875
-4.3481841 5.138669 68.750008
-4.1900058 5.1293259 68.625
-4.0338478 5.121851 68.525002
-3.8781271 5.114377 68.425003
-3.7228439 5.1069021 68.325005
-3.5706141 5.1031651 68.275002
-3.4186029 5.0994282 68.225006
-3.2680089 5.097559 68.200005
-3.1186681 5.097559 68.200005
-2.9704151 5.0994282 68.225006
-2.823086 5.1031651 68.275002
-2.675539 5.1069021 68.325005
-2.5286961 5.1125078 68.400002
-2.381525 5.118114 68.474998
-2.234026 5.1237202 68.550003
-2.0861981 5.1293259 68.625
-1.938042 5.134932 68.700005
-1.789557 5.1405368 68.775002
-1.640148 5.1442742 68.824997
-1.489979 5.146143 68.850006
-1.340187 5.1498799 68.900002
-1.190176 5.1536179 68.950005
-1.039946 5.1573548 69.000008
-0.88949698 5.1610918 69.050003
-5.458971 5.3448482 69.474998
-5.303019 5.341001 69.425003
-5.1454301 5.3352308 69.350006
-4.98457 5.325614 69.224998
-4.8242569 5.3159981 69.100006
-4.6611099 5.302536 68.925003
-4.5003662 5.2909961 68.775002
-4.343441 5.2833018 68.675003
-4.186954 5.275609 68.574997
-4.0309048 5.2679162 68.474998
-3.8767099 5.262146 68.400002
-3.7228439 5.2563758 68.325005
-3.5706141 5.2525291 68.275002
-3.4186029 5.248682 68.225006
-3.269207 5.248682 68.225006
-3.1198111 5.248682 68.225006
-2.9704151 5.248682 68.225006
-2.822052 5.2506061 68.25
-2.6745601 5.2544532 68.300003
-2.5268481 5.2582989 68.350006
-2.378917 5.262146 68.400002
-2.2315819 5.2679162 68.474998
-2.0839181 5.273685 68.550003
-1.935926 5.2794561 68.625
-1.787606 5.2852249 68.700005
-1.638361 5.289072 68.750008
-1.4894381 5.2948418 68.824997
-1.3397011 5.2986879 68.875
-1.1897449 5.302536 68.925003
-1.039569 5.3063822 68.974998
-0.889175 5.3102279 69.025002
-0.74417502 5.354465 69.600006
-5.457006 5.4948592 69.450005
-5.3011079 5.4909019 69.400002
-5.1435752 5.4849691 69.325005
-4.98277 5.4750791 69.200005
-4.8190212 5.4612331 69.025002
-4.6543469 5.4454079 68.824997
-4.4954581 5.4355192 68.700005
-4.338697 5.4276071 68.600006
-4.1839008 5.4216728 68.525002
-4.0294328 5.4157391 68.450005
-3.875293 5.4098048 68.375
-3.7228439 5.405849 68.325005
-3.5706141 5.4018931 68.275002
-3.4198561 5.3999152 68.25
-3.269207 5.3979368 68.225006
-3.1198111 5.3979368 68.225006
-2.9704151 5.3979368 68.225006
-2.8210189 5.3979368 68.225006
-2.672601 5.3999152 68.25
-2.524075 5.4018931 68.275002
-2.376308 5.405849 68.325005
-2.228323 5.4098048 68.375
-2.080878 5.4157391 68.450005
-1.93381 5.4236512 68.550003
-1.7856539 5.429585 68.625
-1.637169 5.4355192 68.700005
-1.487815 5.4394751 68.750008
-1.338728 5.4454079 68.824997
-1.188882 5.4493651 68.875
-1.039192 5.4552989 68.950005
-0.889175 5.4612331 69.025002
-0.74070001 5.4810119 69.275002
-5.4550419 5.6447601 69.425003
-5.2991991 5.6406951 69.375
-5.1398649 5.6325641 69.275002
-4.9773688 5.620368 69.125
-4.8102942 5.6020741 68.900002
-4.645895 5.585813 68.700005
-4.488915 5.577682 68.600006
-4.3339529 5.5715842 68.525002
-4.1793218 5.565485 68.450005
-4.0264888 5.56142 68.400002
-3.8738761 5.5573549 68.350006
-3.721482 5.5532889 68.300003
-3.5706141 5.5512571 68.275002
-3.4198561 5.5492239 68.25
-3.269207 5.5471911 68.225006
-3.1186681 5.5451589 68.200005
-2.969326 5.5451589 68.200005
-2.8199849 5.5451589 68.200005
-2.670644 5.5451589 68.200005
-2.522227 5.5471911 68.225006
-2.3736999 5.5492239 68.25
-2.225879 5.5532889 68.300003
-2.078598 5.5593872 68.375
-1.93099 5.565485 68.450005
-1.783052 5.5715842 68.525002
-1.634786 5.577682 68.600006
-1.486192 5.5837798 68.675003
-1.33727 5.5898781 68.750008
-1.18845 5.5980091 68.850006
-1.038816 5.6041059 68.925003
-0.88885301 5.6102052 69.000008
-0.739631 5.624433 69.175003
-5.4511132 5.7924652 69.375
-5.2953801 5.788291 69.325005
-5.1343012 5.777854 69.200005
-4.966568 5.7590671 68.974998
-4.7980762 5.738194 68.724998
-4.639132 5.727757 68.600006
-4.4840069 5.7214952 68.525002
-4.3292098 5.7152319 68.450005
-4.1762691 5.7110572 68.400002
-4.0235462 5.706883 68.350006
-3.8724589 5.7047949 68.325005
-3.72012 5.7006211 68.275002
-3.5693071 5.698534 68.25
