ply
format ascii 1.0
comment PCL generated
element vertex 1614
property float x
property float y
property float z
element face 0
element camera 0
property float view_px
property float view_py
property float view_pz
property float x_axisx
property float x_axisy
property float x_axisz
property float y_axisx
property float y_axisy
property float y_axisz
property float z_axisx
property float z_axisy
property float z_axisz
property float focal
property float scalex
property float scaley
property float centerx
property float centery
property int viewportx
property int viewporty
property float k1
property float k2
end_header
0.30610001 3.2016931 66.025002
0.450849 3.2029049 66.050003
0.59570801 3.2041171 66.075005
0.74067599 3.2053299 66.099998
0.88575399 3.206542 66.125008
1.030552 3.206542 66.125008
1.174461 3.2041171 66.075005
1.31865 3.2029049 66.050003
1.461068 3.198056 65.949997
1.601831 3.1907821 65.800003
1.73862 3.1774471 65.525002
1.8706141 3.1580501 65.125
2.013222 3.1580501 65.125
2.157485 3.160475 65.175003
2.3019669 3.162899 65.225006
2.4476049 3.1665361 65.300003
2.5935709 3.1701729 65.375
2.7409129 3.1750219 65.475006
2.8886931 3.1798711 65.575005
3.0369101 3.184721 65.675003
3.185565 3.18957 65.775002
3.3346591 3.1944189 65.875008
3.4828701 3.198056 65.949997
3.6314089 3.2016931 66.025002
3.778847 3.2041171 66.075005
3.92502 3.2053299 66.099998
4.0697632 3.2053299 66.099998
4.2129121 3.2041171 66.075005
4.352654 3.20048 66
4.4937701 3.198056 65.949997
4.636426 3.1968429 65.925003
4.780787 3.1968429 65.925003
4.9270139 3.198056 65.949997
5.0733509 3.1992681 65.975006
5.2197971 3.20048 66
5.366353 3.2016931 66.025002
5.5151048 3.2041171 66.075005
5.6640759 3.206542 66.125008
5.8132658 3.208966 66.175003
5.9649248 3.212604 66.25
6.1146078 3.215028 66.300003
6.26687 3.2186649 66.375008
6.4194608 3.222302 66.450005
6.5748501 3.2271509 66.550003
6.7382512 3.2356369 66.725006
6.8998389 3.2429111 66.875008
7.0594492 3.2489719 67
7.2115412 3.2513969 67.050003
7.369338 3.256247 67.150002
7.563951 3.276855 67.575005
7.7147779 3.2780681 67.600006
7.8569899 3.2756431 67.550003
7.9960198 3.272006 67.475006
8.1407566 3.2707939 67.450005
8.2853832 3.269582 67.425003
8.4236469 3.265945 67.350006
8.5679445 3.2647331 67.325005
8.6797714 3.2513969 67.050003
8.8101387 3.2453351 66.925003
8.9533424 3.244123 66.900002
9.0998373 3.244123 66.900002
9.242878 3.2429111 66.875008
9.392828 3.244123 66.900002
9.5428867 3.2453351 66.925003
9.7002935 3.2489719 67
9.8910999 3.26352 67.300003
10.064573 3.272006 67.475006
10.219895 3.274431 67.525009
-9.7466822 3.531116 69.675003
-9.5906677 3.5298481 69.650002
-9.434763 3.5285821 69.625
-9.2723026 3.52478 69.550003
-9.1101704 3.5209789 69.474998
-8.9451427 3.5159121 69.375
-8.7805529 3.510844 69.275002
-8.6132889 3.504508 69.150002
-8.4465714 3.498173 69.025002
-8.2773962 3.490572 68.875
-8.1088781 3.48297 68.724998
-7.9381208 3.4741011 68.550003
-7.7567711 3.4601641 68.275002
-7.526485 3.4234209 67.550003
-7.3703752 3.41962 67.475006
-7.219945 3.4183531 67.450005
-7.0696239 3.4170859 67.425003
-6.9168482 3.414552 67.375008
-6.7668009 3.413285 67.350006
-6.6144071 3.4107511 67.300003
-6.4622312 3.408217 67.25
-6.3079281 3.4044161 67.175003
-6.151659 3.399348 67.075005
-5.9980669 3.3955469 67
-5.8448029 3.391746 66.925003
-5.6939969 3.3892119 66.875008
-5.5454831 3.3879449 66.849998
-5.3950601 3.385411 66.800003
-5.2428908 3.3816099 66.725006
-5.0910511 3.377809 66.650002
-4.9339738 3.3702071 66.5
-4.779355 3.3638721 66.375008
-4.6305189 3.3613379 66.325005
-4.5089521 3.379076 66.675003
-4.3613138 3.377809 66.650002
-4.1900678 3.357537 66.25
-4.0236282 3.3397989 65.900002
-3.877851 3.338532 65.875008
-3.732183 3.337265 65.849998
-3.5866261 3.3359981 65.825005
-3.4398701 3.3334639 65.775002
-3.2920811 3.329663 65.699997
-3.142225 3.323328 65.575005
-2.989486 3.3131919 65.375
-2.836534 3.301789 65.150002
-2.6887031 3.295455 65.025002
-2.5443561 3.2929201 64.975006
-2.402077 3.2929201 64.975006
-2.2606671 3.2941871 65
-2.119962 3.296721 65.050003
-1.979038 3.2992549 65.100006
-1.837896 3.301789 65.150002
-1.696534 3.304323 65.200005
-1.555549 3.3081241 65.275002
-1.4142359 3.3119249 65.349998
-1.27308 3.316993 65.449997
-1.131487 3.322062 65.550003
-0.989456 3.3271289 65.650002
-0.84666401 3.33093 65.725006
-0.70354497 3.3347311 65.800003
-0.56009603 3.338532 65.875008
-0.416004 3.3397989 65.900002
-0.27180201 3.3410659 65.925003
-0.127491 3.3423331 65.949997
0.016923999 3.3423331 65.949997
0.16139901 3.3436 65.975006
0.30598399 3.344867 66
0.450849 3.3474009 66.050003
0.59570801 3.3486681 66.075005
0.74039602 3.3486681 66.075005
0.88508397 3.3486681 66.075005
1.0293829 3.3474009 66.050003
1.173128 3.344867 66
1.316154 3.3410659 65.925003
1.458299 3.3359981 65.825005
1.598179 3.3271289 65.650002
1.724689 3.2941871 65
1.861279 3.2840509 64.800003
2.0062671 3.289119 64.900002
2.154175 3.2979879 65.075005
2.3002019 3.303056 65.175003
2.4466679 3.3081241 65.275002
2.5935709 3.3131919 65.375
2.7409129 3.31826 65.475006
2.8897941 3.324595 65.599998
3.0380659 3.329663 65.699997
3.1867759 3.3347311 65.800003
3.3346591 3.338532 65.875008
3.48155 3.3410659 65.925003
3.627284 3.3423331 65.949997
3.773128 3.3436 65.975006
3.9161129 3.3423331 65.949997
4.0589881 3.3410659 65.925003
4.1969719 3.3359981 65.825005
4.3361659 3.332197 65.75
4.4801431 3.332197 65.75
4.6258769 3.3334639 65.775002
4.7717218 3.3347311 65.800003
4.9195428 3.337265 65.849998
5.065661 3.338532 65.875008
5.2138648 3.3410659 65.925003
5.362289 3.3436 65.975006
5.510931 3.3461339 66.025002
5.6597929 3.3486681 66.075005
5.8088741 3.351202 66.125008
5.9604239 3.3550031 66.200005
6.1123018 3.358804 66.275002
6.2645092 3.3626051 66.349998
6.4170461 3.366406 66.425003
6.5723801 3.371474 66.525002
6.733202 3.379076 66.675003
6.8895211 3.3841441 66.775009
7.048913 3.3904791 66.900002
7.203474 3.39428 66.975006
7.3556199 3.3968141 67.025009
7.5163798 3.4031489 67.150002
7.6748338 3.408217 67.25
7.8279109 3.4107511 67.300003
7.9723201 3.4094839 67.275009
8.0924788 3.3980811 67.050003
8.1932211 3.379076 66.675003
8.3329697 3.3765421 66.625008
8.4884071 3.380343 66.700005
8.6474075 3.385411 66.800003
8.7969751 3.386678 66.825005
8.943305 3.386678 66.825005
9.0896358 3.386678 66.825005
9.2359667 3.386678 66.825005
9.385807 3.3879449 66.849998
9.5393229 3.3904791 66.900002
9.6966763 3.39428 66.975006
9.8727274 3.4044161 67.175003
10.042199 3.4120181 67.325005
10.20476 3.4170859 67.425003
-9.7571735 3.6875069 69.750008
-9.6009951 3.6861849 69.724998
-9.4449263 3.684864 69.700005
-9.2823019 3.6808989 69.625
-9.1200056 3.676934 69.550003
-8.9515905 3.670325 69.425003
-8.7837219 3.663717 69.300003
-8.6132889 3.655787 69.150002
-8.4404516 3.6465349 68.974998
-8.2683821 3.6372831 68.800003
-8.0941296 3.626709 68.600006
-7.9236469 3.6174581 68.425003
-7.74541 3.6042409 68.175003
-7.5209141 3.5685551 67.5
-7.3676438 3.565912 67.450005
-7.217268 3.56459 67.425003
-7.0643821 3.5619471 67.375008
-6.9142809 3.5606251 67.350006
-6.7617769 3.557982 67.300003
-6.6094918 3.5553379 67.25
-6.457427 3.552695 67.200005
-6.3008838 3.5474081 67.099998
-6.1447811 3.5421209 67
-5.9891152 3.536835 66.900002
-5.8360701 3.5328701 66.825005
-5.685483 3.5302269 66.775009
-5.5351138 3.5275829 66.725006
-5.384964 3.5249391 66.675003
-5.2330689 3.5209751 66.599998
-5.0795932 3.515687 66.5
-4.9191351 3.505115 66.300003
-4.763154 3.497184 66.150002
-4.6095738 3.490576 66.025002
-4.4582329 3.4852891 65.925003
-4.3089652 3.481324 65.849998
-4.1584449 3.476037 65.75
-4.0144691 3.476037 65.75
-3.8690209 3.4747159 65.725006
-3.7250991 3.4747159 65.725006
-3.5798149 3.4733939 65.699997
-3.4333329 3.470751 65.650002
-3.284565 3.4654641 65.550003
-3.1374331 3.461499 65.475006
-2.9871991 3.453568 65.325005
-2.834357 3.441673 65.100006
-2.6845679 3.432421 64.925003
-2.5404401 3.4297781 64.875
-2.39838 3.4297781 64.875
-2.257189 3.4310999 64.900002
-2.116703 3.433743 64.950005
-1.975998 3.4363871 65
-1.835075 3.4390299 65.050003
-1.6939321 3.441673 65.100006
-1.553166 3.4456379 65.175003
-1.412613 3.4509251 65.275002
-1.2716219 3.456212 65.375
-1.1306241 3.462821 65.5
-0.988702 3.468107 65.599998
-0.84634203 3.4733939 65.699997
-0.70327699 3.4773591 65.775002
-0.55967098 3.4800019 65.825005
-0.41568801 3.481324 65.849998
-0.27169901 3.483968 65.900002
-0.127443 3.4852891 65.925003
0.016917 3.4852891 65.925003
0.16139901 3.487932 65.975006
0.30598399 3.489254 66
0.450679 3.490576 66.025002
0.59525698 3.490576 66.025002
0.73983598 3.490576 66.025002
0.88441497 3.490576 66.025002
1.028214 3.487932 65.975006
1.17135 3.483968 65.900002
1.314158 3.4800019 65.825005
1.456637 3.476037 65.75
1.590876 3.45489 65.349998
1.712749 3.412596 64.550003
1.854098 3.412596 64.550003
1.999311 3.419205 64.675003
2.1483819 3.4310999 64.900002
2.297555 3.441673 65.100006
2.4457309 3.449604 65.25
2.5935709 3.456212 65.375
2.74196 3.462821 65.5
2.8908949 3.469429 65.625008
3.039222 3.4747159 65.725006
3.1879871 3.4800019 65.825005
3.3333931 3.481324 65.849998
3.478909 3.482646 65.875008
3.6231589 3.482646 65.875008
3.7659791 3.481324 65.849998
3.9072061 3.4786811 65.800003
4.0466738 3.4747159 65.725006
4.1842198 3.469429 65.625008
4.326273 3.468107 65.599998
4.4699221 3.468107 65.599998
4.6153278 3.469429 65.625008
4.7626572 3.4720719 65.675003
4.9120722 3.476037 65.75
5.0598941 3.4786811 65.800003
5.2099109 3.482646 65.875008
5.3582249 3.4852891 65.925003
5.5088449 3.489254 66
5.6576509 3.4918981 66.050003
5.8088741 3.495863 66.125008
5.9581728 3.4985061 66.175003
6.1099968 3.502471 66.25
6.2621498 3.5064361 66.325005
6.4146299 3.510401 66.400002
6.56991 3.515687 66.5
6.7256269 3.5209751 66.599998
6.881783 3.5262611 66.700005
7.0410099 3.5328701 66.825005
7.1954069 3.536835 66.900002
7.350132 3.5408001 66.975006
7.502388 3.543443 67.025009
7.6548629 3.546087 67.075005
7.8017411 3.546087 67.075005
7.9219551 3.5341909 66.849998
8.0260973 3.515687 66.5
8.1686449 3.5143659 66.475006
8.3235893 3.518332 66.550003
8.4788618 3.522296 66.625008
8.6312265 3.5249391 66.675003
8.7838106 3.5275829 66.725006
8.936615 3.5302269 66.775009
9.0828352 3.5302269 66.775009
9.2325125 3.531548 66.800003
9.3822985 3.5328701 66.825005
9.535758 3.5355129 66.875008
9.6930561 3.5394781 66.950005
9.8580313 3.546087 67.075005
10.031012 3.5553379 67.25
10.189624 3.559303 67.325005
-9.7676649 3.8442271 69.825005
-9.6113224 3.84285 69.800003
-9.4517021 3.8400979 69.750008
-9.2923012 3.8373449 69.700005
-9.1265621 3.83184 69.600006
-8.9612598 3.826334 69.500008
-8.79006 3.8180759 69.350006
-8.6132889 3.807065 69.150002
-8.4343348 3.794677 68.925003
-8.2563648 3.78229 68.700005
-8.0764313 3.7685261 68.450005
-7.9091711 3.760268 68.300003
-7.7340479 3.74788 68.075005
-7.5209141 3.716224 67.5
-7.3676438 3.7134709 67.450005
-7.2145929 3.7107179 67.400002
-7.0617609 3.7079649 67.350006
-6.911715 3.706589 67.325005
-6.7592659 3.703836 67.275009
-6.6070361 3.7010839 67.225006
-6.4526219 3.696954 67.150002
-6.2961898 3.6914489 67.050003
-6.1379018 3.684567 66.925003
-5.9801621 3.677685 66.800003
-5.8273368 3.6735561 66.725006
-5.674839 3.6694269 66.650002
-5.524744 3.6666739 66.599998
-5.372849 3.662545 66.525002
-5.221283 3.658416 66.450005
-5.066226 3.6515341 66.325005
-4.9135699 3.646029 66.225006
-4.7559528 3.636394 66.050003
-4.5956111 3.624006 65.825005
-4.443017 3.6171241 65.699997
-4.2958779 3.614372 65.650002
-4.1505389 3.6129961 65.625008
-4.0068369 3.6129961 65.625008
-3.8616619 3.611619 65.599998
-3.718014 3.611619 65.599998
-3.5716419 3.608866 65.550003
-3.4254889 3.606113 65.5
-3.2795539 3.6033599 65.449997
-3.1326411 3.599231 65.375
-2.9849131 3.5937259 65.275002
-2.830003 3.5785861 65
-2.673197 3.5593171 64.650002
-2.5345659 3.563446 64.725006
-2.3946829 3.5661981 64.775002
-2.25458 3.5689509 64.825005
-2.114259 3.5717039 64.875
-1.973718 3.5744569 64.925003
-1.8329591 3.5772099 64.975006
-1.69198 3.579962 65.025002
-1.551379 3.5840909 65.100006
-1.411531 3.5909729 65.225006
-1.270649 3.5964789 65.325005
-1.129761 3.6033599 65.449997
-0.988325 3.6102431 65.575005
-0.84601998 3.6157479 65.675003
-0.70274299 3.6185009 65.725006
-0.55945897 3.6226299 65.800003
-0.41568801 3.6253819 65.849998
-0.27159601 3.6267591 65.875008
-0.12739401 3.628135 65.900002
0.016917 3.6295121 65.925003
0.161338 3.630888 65.949997
0.305868 3.6322651 65.975006
0.45033699 3.6322651 65.975006
0.59503198 3.633641 66
0.73927599 3.6322651 65.975006
0.88340998 3.630888 65.949997
1.027045 3.628135 65.900002
1.170017 3.624006 65.825005
1.31266 3.6198771 65.75
1.454422 3.614372 65.650002
1.568966 3.548306 64.450005
1.708106 3.5441761 64.375
1.84979 3.545553 64.400009
1.9931279 3.5496819 64.475006
2.1384511 3.5565641 64.600006
2.2957909 3.5813389 65.050003
2.4457309 3.59235 65.25
2.594563 3.6006081 65.400002
2.743006 3.6074901 65.525002
2.8919959 3.614372 65.650002
3.0403781 3.6198771 65.75
3.1867759 3.6226299 65.800003
3.332128 3.624006 65.825005
3.476269 3.624006 65.825005
3.6190341 3.6226299 65.800003
3.7602601 3.6198771 65.75
3.8997829 3.6157479 65.675003
4.0389781 3.611619 65.599998
4.1794381 3.608866 65.550003
4.3196788 3.606113 65.5
4.4631081 3.606113 65.5
4.608295 3.6074901 65.525002
4.7554049 3.6102431 65.575005
4.9046021 3.614372 65.650002
5.0560479 3.6198771 65.75
5.2059569 3.624006 65.825005
5.356194 3.628135 65.900002
5.5067582 3.6322651 65.975006
5.6576509 3.636394 66.050003
5.8088741 3.640523 66.125008
5.9604239 3.6446519 66.200005
6.1123018 3.6487811 66.275002
6.2645092 3.65291 66.349998
6.4146299 3.655663 66.400002
6.56744 3.6597919 66.475006
6.7180538 3.662545 66.525002
6.8714652 3.6666739 66.599998
7.0278401 3.6721799 66.700005
7.1738968 3.6721799 66.700005
7.2349 3.6295121 65.925003
7.3736639 3.6267591 65.875008
7.5207672 3.628135 65.900002
7.6737962 3.6322651 65.975006
7.833077 3.6391461 66.099998
7.9989409 3.6487811 66.275002
8.1594276 3.655663 66.400002
8.3173351 3.6611681 66.5
8.4693174 3.6639211 66.550003
8.6215172 3.6666739 66.599998
8.7772284 3.6708031 66.675003
8.9265776 3.6721799 66.700005
9.0760336 3.6735561 66.725006
9.2256012 3.674932 66.75
9.3752785 3.6763091 66.775009
9.5286283 3.6790609 66.825005
9.6858177 3.6831911 66.900002
9.8506832 3.690073 67.025009
10.016096 3.696954 67.150002
10.178273 3.7024601 67.25
-9.6182079 3.9984131 69.850006
-9.458477 3.9955499 69.800003
-9.2989664 3.9926879 69.750008
-9.1331186 3.986964 69.650002
-8.9644833 3.979809 69.525002
-8.79006 3.9697909 69.350006
-8.6070614 3.9554811 69.100006
-8.4220972 3.939739 68.824997
-8.2383385 3.9239969 68.550003
-8.0528326 3.9068241 68.25
-7.888906 3.899668 68.125
-7.7141671 3.8867891 67.900002
-7.5320559 3.869616 67.600006
-7.3703752 3.8624611 67.475006
-7.2145929 3.8581679 67.400002
-7.0617609 3.855305 67.350006
-6.911715 3.853874 67.325005
-6.756753 3.849581 67.25
-6.604578 3.846719 67.200005
-6.4502201 3.8424261 67.125008
-6.2914939 3.8352709 67
-6.1264391 3.823822 66.800003
-5.9689722 3.8166659 66.675003
-5.8164201 3.8123729 66.599998
-5.664196 3.80808 66.525002
-5.5143752 3.805218 66.475006
-5.3627539 3.800925 66.400002
-5.209496 3.7952011 66.300003
-5.0566769 3.7894759 66.200005
-4.902441 3.782321 66.075005
-4.7469521 3.7737341 65.925003
-4.5816479 3.756562 65.625008
-4.4311819 3.7508371 65.525002
-4.2860632 3.7494061 65.5
-4.1410518 3.7479751 65.475006
-3.997678 3.7479751 65.475006
-3.8543041 3.7479751 65.475006
-3.7109301 3.7479751 65.475006
-3.5661931 3.7465439 65.449997
-3.420259 3.7436819 65.400002
-3.2757959 3.7422509 65.375
-3.1290469 3.737958 65.300003
-2.981483 3.732233 65.200005
-2.8006151 3.6821461 64.325005
-2.6607921 3.6835771 64.350006
-2.522819 3.68787 64.425003
-2.389137 3.6993189 64.625
-2.251972 3.7064741 64.75
-2.111814 3.709336 64.800003
-1.970678 3.710767 64.825005
-1.830138 3.713629 64.875
-1.689378 3.716491 64.925003
-1.548996 3.7207849 65
-1.408826 3.7265091 65.100006
-1.26919 3.735096 65.25
-1.129329 3.7451129 65.425003
-0.98794901 3.752269 65.550003
-0.845698 3.757993 65.650002
-0.70274299 3.7622859 65.725006
-0.559246 3.7651479 65.775002
-0.41553101 3.7680099 65.825005
-0.27159601 3.7708731 65.875008
-0.12739401 3.7723041 65.900002
0.016917 3.7737341 65.925003
0.161277 3.7737341 65.925003
0.30563599 3.7737341 65.925003
0.44999599 3.7737341 65.925003
0.594356 3.7737341 65.925003
0.73843497 3.7723041 65.900002
0.88207102 3.7694409 65.849998
1.0254869 3.7665789 65.800003
1.168684 3.7637169 65.75
1.3106641 3.757993 65.650002
1.43116 3.6978879 64.600006
1.564098 3.6778531 64.250008
1.705453 3.6792841 64.275002
1.846917 3.6807151 64.300003
1.990037 3.685008 64.375
2.132658 3.68787 64.425003
2.2860849 3.7079051 64.775002
2.4466679 3.736526 65.275002
2.5955551 3.7451129 65.425003
2.743006 3.7508371 65.525002
2.8919959 3.757993 65.650002
3.039222 3.7622859 65.725006
3.185565 3.7651479 65.775002
3.330862 3.7665789 65.800003
3.473628 3.7651479 65.775002
3.6149089 3.7622859 65.725006
3.7545409 3.757993 65.650002
3.89533 3.755131 65.599998
4.0343599 3.7508371 65.525002
4.1746559 3.7479751 65.475006
4.316381 3.7465439 65.449997
4.4579968 3.7451129 65.425003
4.6030202 3.7465439 65.449997
4.7499661 3.7494061 65.5
4.900866 3.755131 65.599998
5.050282 3.759424 65.675003
5.202002 3.7651479 65.775002
5.3541622 3.7708731 65.875008
5.5067582 3.776597 65.975006
5.6576509 3.78089 66.050003
5.811069 3.7866139 66.150002
5.9649248 3.7923379 66.25
6.1169138 3.7966321 66.325005
6.26687 3.799494 66.375008
6.4170461 3.802356 66.425003
6.56497 3.803787 66.450005
6.7104802 3.803787 66.450005
6.8585691 3.805218 66.475006
6.9725232 3.7880449 66.175003
7.0932298 3.7751651 65.949997
7.2321572 3.7723041 65.900002
7.3736639 3.7708731 65.875008
7.5207672 3.7723041 65.900002
7.670887 3.7751651 65.949997
7.8271518 3.78089 66.050003
7.9898901 3.7894759 66.200005
8.1502113 3.7966321 66.325005
8.3048277 3.800925 66.400002
8.4629536 3.806649 66.5
8.6150455 3.8095109 66.550003
8.770647 3.8138051 66.625008
8.9198847 3.8152361 66.650002
9.0692329 3.8166659 66.675003
9.2186909 3.8180981 66.700005
9.3682585 3.8195291 66.725006
9.5214996 3.822391 66.775009
9.6785774 3.826684 66.849998
9.8396606 3.832408 66.950005
10.00491 3.8395641 67.075005
10.163138 3.843857 67.150002
-9.6216497 4.1527081 69.875
-9.4618654 4.1497359 69.825005
-9.2989664 4.1452789 69.750008
-9.1331186 4.1393361 69.650002
-8.9612598 4.1304221 69.500008
-8.7805529 4.1170502 69.275002
-8.5946054 4.1007071 69.000008
-8.4006824 4.079906 68.650002
-8.1992788 4.054647 68.225006
-8.0321836 4.045732 68.075005
-7.865746 4.036819 67.925003
-7.699965 4.027904 67.775002
-7.534842 4.0189891 67.625008
-7.3758359 4.0130458 67.525009
-7.217268 4.007103 67.425003
-7.0643821 4.0041318 67.375008
-6.9091482 3.9996741 67.300003
-6.756753 3.9967029 67.25
-6.604578 3.993731 67.200005
-6.4478168 3.987788 67.099998
-6.2750621 3.9714451 66.825005
-6.1080961 3.9580729 66.599998
-5.955543 3.9536159 66.525002
-5.8055029 3.950644 66.475006
-5.653553 3.946187 66.400002
-5.5019321 3.9417291 66.325005
-5.3506389 3.9372721 66.25
-5.1996751 3.9328151 66.175003
-5.0490389 3.9283569 66.099998
-4.893167 3.9194429 65.949997
-4.7217498 3.897156 65.575005
-4.5676851 3.888242 65.425003
-4.4210391 3.8852701 65.375
-4.276248 3.883785 65.349998
-4.1315651 3.8822989 65.325005
-3.9869931 3.8808129 65.300003
-3.842531 3.8793271 65.275002
-3.6981771 3.8778419 65.25
-3.556658 3.8793271 65.275002
-3.413722 3.8793271 65.275002
-3.2695329 3.8778419 65.25
-3.1242549 3.8748701 65.200005
-2.939184 3.8198969 64.275002
-2.7962611 3.816925 64.224998
-2.6545899 3.8154399 64.200005
-2.5130291 3.8139541 64.175003
-2.3752739 3.8184111 64.250008
-2.2476239 3.840698 64.625
-2.1101849 3.8481259 64.75
-1.9691581 3.849612 64.775002
-1.827317 3.849612 64.775002
-1.679621 3.8362401 64.550003
-1.530527 3.816925 64.224998
-1.388808 3.8139541 64.175003
-1.24828 3.8139541 64.175003
-1.108184 3.8154399 64.200005
-0.97589099 3.8481259 64.75
-0.84537601 3.9001279 65.625008
-0.70274299 3.9060709 65.725006
-0.55903399 3.907557 65.75
-0.41553101 3.912014 65.825005
-0.27149299 3.9135001 65.849998
-0.12734599 3.9149859 65.875008
0.016904 3.9149859 65.875008
0.16121601 3.916471 65.900002
0.30552101 3.916471 65.900002
0.449655 3.9149859 65.875008
0.59368002 3.9135001 65.849998
0.737315 3.9105279 65.800003
0.88073099 3.907557 65.75
1.024318 3.9060709 65.725006
1.166906 3.901614 65.650002
1.299184 3.8674409 65.075005
1.422298 3.8154399 64.200005
1.56288 3.8154399 64.200005
1.703463 3.8154399 64.200005
1.845481 3.8184111 64.250008
1.9877191 3.821383 64.300003
2.1301751 3.8243539 64.350006
2.2763801 3.8332689 64.500008
2.4466679 3.8793271 65.275002
2.5955551 3.888242 65.425003
2.743006 3.8941851 65.525002
2.8908949 3.9001279 65.625008
3.0380659 3.9045849 65.699997
3.1831441 3.9060709 65.725006
3.3270659 3.9060709 65.725006
3.469667 3.9045849 65.699997
3.6107841 3.901614 65.650002
3.750252 3.897156 65.575005
3.8908761 3.8941851 65.525002
4.031281 3.8912139 65.475006
4.1730618 3.8897281 65.449997
4.3130841 3.8867559 65.400002
4.4562941 3.8867559 65.400002
4.6012621 3.888242 65.425003
4.7481532 3.8912139 65.475006
4.89713 3.8956709 65.550003
5.0483589 3.901614 65.650002
5.202002 3.9090419 65.775002
5.3541622 3.9149859 65.875008
5.5088449 3.9224141 66
5.6619339 3.9283569 66.099998
5.8176579 3.935786 66.225006
5.9739289 3.9432149 66.349998
6.1238308 3.946187 66.400002
6.273952 3.9491589 66.450005
6.4194608 3.9491589 66.450005
6.5625 3.9476731 66.425003
6.7029061 3.944701 66.375008
6.8379331 3.9387579 66.275002
6.961987 3.926872 66.075005
7.0932298 3.9194429 65.949997
7.2321572 3.916471 65.900002
7.376462 3.916471 65.900002
7.5236201 3.9179571 65.925003
7.6737962 3.920929 65.975006
7.8271518 3.925386 66.050003
7.9838548 3.931329 66.150002
8.140995 3.9372721 66.25
8.2985725 3.9432149 66.349998
8.4565907 3.9491589 66.450005
8.6118088 3.9536159 66.525002
8.767355 3.9580729 66.599998
8.9165392 3.959559 66.625008
9.0658321 3.961045 66.650002
9.2152348 3.9625299 66.675003
9.364748 3.964016 66.700005
9.514369 3.965502 66.725006
9.6677198 3.968473 66.775009
9.8286371 3.974416 66.875008
9.9899931 3.98036 66.975006
10.151787 3.9863019 67.075005
-9.6250935 4.3071132 69.900009
-9.4618654 4.3024912 69.825005
-9.2989664 4.2978702 69.750008
-9.1265621 4.2886271 69.600006
-8.9386959 4.2716818 69.325005
-8.7520342 4.2547369 69.050003
-8.5603504 4.2347112 68.724998
-8.342557 4.2008209 68.175003
-8.1722383 4.1900368 68
-8.0144863 4.1854172 67.925003
-7.8570609 4.1807952 67.850006
-7.697125 4.174633 67.75
-7.534842 4.1669312 67.625008
-7.3758359 4.160769 67.525009
-7.219945 4.156147 67.450005
-7.0643821 4.151526 67.375008
-6.9091482 4.1469049 67.300003
-6.756753 4.1438241 67.25
-6.6021209 4.1392031 67.175003
-6.4358058 4.1268792 66.975006
-6.2421961 4.0960698 66.475006
-6.0897532 4.0914488 66.400002
-5.939877 4.088367 66.349998
-5.7902198 4.0852871 66.300003
-5.6407819 4.0822058 66.25
-5.4894891 4.0775838 66.175003
-5.3385239 4.0729632 66.099998
-5.1878891 4.0683408 66.025002
-5.037581 4.0637202 65.949997
-4.8801818 4.052937 65.775002
-4.7055488 4.0267491 65.349998
-4.5572119 4.0221281 65.275002
-4.4125848 4.0205879 65.25
-4.2664318 4.0175071 65.200005
-4.1220779 4.0159659 65.175003
-3.9763091 4.0128851 65.125
-3.8292861 4.0082641 65.050003
-3.682591 4.003643 64.975006
-3.5375869 4.0005622 64.925003
-3.395417 4.0005622 64.925003
-3.2482369 3.9944 64.825005
-3.0811291 3.96205 64.300003
-2.935755 3.955888 64.200005
-2.792995 3.9528079 64.150009
-2.651489 3.951267 64.125
-2.510092 3.9497271 64.100006
-2.3678801 3.946645 64.050003
-2.2284961 3.9481859 64.075005
-2.1044819 3.9789951 64.575005
-1.963838 3.980536 64.600006
-1.812507 3.9589701 64.250008
-1.6685621 3.951267 64.125
-1.527548 3.9497271 64.100006
-1.3877259 3.951267 64.125
-1.247308 3.951267 64.125
-1.107321 3.9528079 64.150009
-0.96722502 3.9543481 64.175003
-0.82766402 3.9589701 64.250008
-0.687774 3.9635911 64.325005
-0.54883099 3.9774549 64.550003
-0.415373 4.0544782 65.800003
-0.27149299 4.0575581 65.849998
-0.127298 4.0575581 65.849998
0.016898001 4.0575581 65.849998
0.16103201 4.0560179 65.825005
0.30505699 4.0544782 65.800003
0.44897199 4.052937 65.775002
0.59277803 4.0513968 65.75
0.73619401 4.048316 65.699997
0.87972599 4.0467749 65.675003
1.02237 4.0421538 65.599998
1.163352 4.0329108 65.449997
1.281217 3.9543481 64.175003
1.421744 3.9543481 64.175003
1.561663 3.9528079 64.150009
1.702799 3.9543481 64.175003
1.844045 3.955888 64.200005
1.986173 3.9589701 64.250008
2.129348 3.9635911 64.325005
2.275497 3.9728341 64.475006
2.4476049 4.0236688 65.300003
2.5955551 4.0313711 65.425003
2.74196 4.0359921 65.5
2.8897941 4.0421538 65.599998
3.035754 4.0452352 65.650002
3.179512 4.0452352 65.650002
3.3232689 4.0452352 65.650002
3.464386 4.0421538 65.599998
3.605284 4.039073 65.550003
3.7473919 4.0375328 65.525002
3.887908 4.034452 65.475006
4.0297418 4.0329108 65.449997
4.1714678 4.0313711 65.425003
4.3130841 4.02983 65.400002
4.4562941 4.02983 65.400002
4.599504 4.02983 65.400002
4.7463398 4.0329108 65.449997
4.8952632 4.0375328 65.525002
5.0464368 4.043694 65.625008
5.2000251 4.0513968 65.75
5.3541622 4.0590992 65.875008
5.510931 4.0683408 66.025002
5.6705012 4.0791249 66.200005
5.8308349 4.0899081 66.375008
5.9874339 4.09761 66.5
6.1353588 4.0991511 66.525002
6.281033 4.0991511 66.525002
6.4242911 4.09761 66.5
6.56497 4.0945301 66.450005
6.7003808 4.088367 66.349998
6.830195 4.0791249 66.200005
6.959352 4.0698819 66.050003
7.0959191 4.0652609 65.975006
7.2349 4.06218 65.925003
7.379261 4.06218 65.925003
7.526473 4.0637202 65.949997
7.676703 4.0668011 66
7.8271518 4.0698819 66.050003
7.9838548 4.0760441 66.150002
8.140995 4.0822058 66.25
8.2985725 4.088367 66.349998
8.4565907 4.0945301 66.450005
8.6118088 4.0991511 66.525002
8.7640648 4.102232 66.575005
8.9165392 4.1053128 66.625008
9.0624313 4.1053128 66.625008
9.2117805 4.106853 66.650002
9.3577271 4.106853 66.650002
9.5072384 4.1083941 66.675003
9.6604795 4.111475 66.725006
9.8176165 4.116096 66.800003
9.9750776 4.120717 66.875008
10.14422 4.1299601 67.025009
-9.7662334 4.5254321 70.925003
-9.4517021 4.45046 69.750008
-9.285635 4.4440789 69.650002
-9.0905018 4.4233432 69.325005
-8.9000139 4.404201 69.025002
-8.7140102 4.3866539 68.750008
-8.4918442 4.349966 68.175003
-8.3180828 4.337204 67.975006
-8.1602201 4.3324189 67.900002
-8.0056372 4.3292289 67.850006
-7.8483772 4.3244438 67.775002
-7.6914449 4.3196578 67.700005
-7.534842 4.3148732 67.625008
-7.3758359 4.3084922 67.525009
-7.219945 4.3037071 67.450005
-7.0643821 4.2989211 67.375008
-6.9091482 4.294136 67.300003
-6.7542419 4.289351 67.225006
-6.594749 4.281374 67.099998
-6.3805528 4.236711 66.400002
-6.2281098 4.231925 66.325005
-6.0759959 4.227139 66.25
-5.9264479 4.223949 66.200005
-5.7749372 4.2191639 66.125008
-5.621624 4.2127829 66.025002
-5.4708238 4.2079978 65.949997
-5.3243899 4.2064028 65.925003
-5.1741381 4.2016168 65.849998
-5.0242138 4.1968322 65.775002
-4.8542142 4.1745 65.425003
-4.6965489 4.1617379 65.225006
-4.550231 4.1585479 65.175003
-4.4041319 4.1553578 65.125
-4.2598891 4.1537628 65.100006
-4.1141729 4.1505728 65.050003
-3.96715 4.1457868 64.975006
-3.820456 4.1410022 64.900002
-3.674089 4.1362162 64.825005
-3.525327 4.1282411 64.700005
-3.3771141 4.120265 64.575005
-3.2244351 4.1059079 64.350006
-3.0775349 4.0979328 64.224998
-2.9334691 4.0931468 64.150009
-2.790818 4.0899572 64.100006
-2.6483879 4.0867658 64.050003
-2.506176 4.0835762 64.000008
-2.3614099 4.0756011 63.875
-2.2154529 4.064435 63.700001
-2.0808539 4.0740061 63.850002
-1.944078 4.0803862 63.950001
-1.806159 4.0851722 64.025002
-1.66596 4.0851722 64.025002
-1.5263571 4.0867658 64.050003
-1.386103 4.0867658 64.050003
-1.246335 4.0883622 64.075005
-1.1064579 4.0899572 64.100006
-0.96684802 4.0931468 64.150009
-0.82701999 4.0963368 64.200005
-0.68697202 4.0995278 64.250008
-0.54691797 4.1043129 64.325005
-0.406535 4.1090989 64.400009
-0.27046201 4.1856661 65.599998
-0.12715299 4.1968322 65.775002
0.016884999 4.1984272 65.800003
0.16091 4.1968322 65.775002
0.30470899 4.1936421 65.725006
0.44828999 4.1904511 65.675003
0.59187698 4.1888561 65.650002
0.73507398 4.1856661 65.599998
0.878052 4.182476 65.550003
1.020032 4.176095 65.449997
1.142022 4.0995278 64.250008
1.281716 4.0963368 64.200005
1.421744 4.0947428 64.175003
1.561663 4.0931468 64.150009
1.702799 4.0947428 64.175003
1.844045 4.0963368 64.200005
1.986173 4.0995278 64.250008
2.129348 4.1043129 64.325005
2.2887321 4.1378121 64.850006
2.4485421 4.168119 65.325005
2.594563 4.172905 65.400002
2.7409129 4.177691 65.475006
2.8875909 4.182476 65.550003
3.0322859 4.1840711 65.575005
3.175879 4.1840711 65.575005
3.318207 4.182476 65.550003
3.4604249 4.1808801 65.525002
3.6025341 4.179285 65.5
3.7445331 4.177691 65.475006
3.8864231 4.176095 65.449997
4.028203 4.1745 65.425003
4.1698742 4.172905 65.400002
4.3130841 4.172905 65.400002
4.4562941 4.172905 65.400002
4.6012621 4.1745 65.425003
4.7481532 4.177691 65.475006
4.8952632 4.1808801 65.525002
5.0464368 4.1872611 65.625008
5.2000251 4.1952372 65.75
5.362289 4.2095928 65.975006
5.5317979 4.228734 66.275002
5.694056 4.2414961 66.475006
5.8505998 4.2494721 66.599998
6.0009398 4.2526622 66.650002
6.1468868 4.2526622 66.650002
6.2904739 4.2510672 66.625008
6.4315362 4.2478771 66.575005
6.56991 4.2430911 66.5
6.7029061 4.235116 66.375008
6.830195 4.223949 66.200005
6.9646201 4.2175689 66.099998
7.1012959 4.2127829 66.025002
7.2403879 4.2095928 65.975006
7.3848581 4.2095928 65.975006
7.5321789 4.2111878 66
7.682519 4.2143779 66.050003
7.833077 4.2175689 66.099998
7.9868722 4.2223539 66.175003
8.140995 4.227139 66.25
8.2985725 4.23352 66.349998
8.4565907 4.2399011 66.450005
8.6118088 4.2446861 66.525002
8.7640648 4.2478771 66.575005
8.9165392 4.2510672 66.625008
9.0624313 4.2510672 66.625008
9.2083254 4.2510672 66.625008
9.3542175 4.2510672 66.625008
9.5036755 4.2526622 66.650002
9.6532412 4.2542572 66.675003
9.9638901 4.2622328 66.800003
-9.7696753 4.6822429 70.950005
-9.4415388 4.5981011 69.675003
-9.2423067 4.5750041 69.325005
-9.0446062 4.5519061 68.974998
-8.8581095 4.5337582 68.700005
-8.6411285 4.4991112 68.175003
-8.4669313 4.4859118 67.975006
-8.3089046 4.4809618 67.900002
-8.151207 4.4760132 67.825005
-7.996788 4.472713 67.775002
-7.842586 4.4694142 67.725006
-7.6857638 4.4644642 67.650002
-7.5292711 4.4595151 67.575005
-7.3758359 4.4562149 67.525009
-7.217268 4.449615 67.425003
-7.0617609 4.4446659 67.350006
-6.9065819 4.4397168 67.275009
-6.744195 4.4298182 67.125008
-6.5234962 4.380322 66.375008
-6.370944 4.3753729 66.300003
-6.21872 4.3704228 66.225006
-6.0668249 4.3654742 66.150002
-5.9152579 4.3605242 66.075005
-5.761837 4.3539252 65.975006
-5.6067238 4.345675 65.849998
-5.4542332 4.339077 65.75
-5.3062191 4.3357768 65.699997
-5.1564589 4.3308272 65.625008
-5.001298 4.3209291 65.475006
-4.8375201 4.3027802 65.200005
-4.6893482 4.2978301 65.125
-4.5432491 4.2945309 65.075005
-4.3973689 4.2912312 65.025002
-4.251709 4.2879319 64.975006
-4.1046858 4.2829819 64.900002
-3.956465 4.276382 64.800003
-3.80721 4.2681332 64.675003
-3.65992 4.2615342 64.575005
-3.51443 4.2565851 64.500008
-3.3666539 4.2483349 64.375
-3.2181721 4.2384362 64.224998
-3.073941 4.2334871 64.150009
-2.9311819 4.2301869 64.100006
-2.788641 4.2268872 64.050003
-2.6452861 4.2219381 63.974998
-2.5003021 4.2136889 63.850002
-2.3438499 4.183991 63.400002
-2.20328 4.1806922 63.350002
-2.067004 4.1856418 63.425003
-1.9334379 4.1971898 63.600002
-1.800517 4.212039 63.825005
-1.662708 4.216989 63.900005
-1.523378 4.2186379 63.925003
-1.383939 4.2202878 63.950001
-1.244876 4.223588 64.000008
-1.1051641 4.2252378 64.025002
-0.96609497 4.2301869 64.100006
-0.82637602 4.2334871 64.150009
-0.68670499 4.2384362 64.224998
-0.54670501 4.2433858 64.300003
-0.40621901 4.246686 64.350006
-0.26623601 4.2615342 64.575005
-0.126186 4.3077288 65.275002
0.016782001 4.315979 65.400002
0.16017599 4.3209291 65.475006
0.303666 4.322578 65.5
0.44709501 4.322578 65.5
0.59052402 4.322578 65.5
0.73339301 4.3192778 65.449997
0.87570798 4.3143291 65.375
1.015357 4.29948 65.150002
1.142022 4.2400861 64.250008
1.281716 4.2367859 64.200005
1.421744 4.235137 64.175003
1.562272 4.235137 64.175003
1.703463 4.2367859 64.200005
1.844763 4.2384362 64.224998
1.9877191 4.2433858 64.300003
2.1334851 4.253284 64.450005
2.2984381 4.2978301 65.125
2.4466679 4.3077288 65.275002
2.5925801 4.3126788 65.349998
2.7388201 4.3176279 65.425003
2.8853891 4.322578 65.5
3.029974 4.3242278 65.525002
3.1734569 4.3242278 65.525002
3.315676 4.322578 65.5
3.4577849 4.3209291 65.475006
3.5997839 4.3192778 65.449997
3.741673 4.3176279 65.425003
3.884938 4.3176279 65.425003
4.0266638 4.315979 65.400002
4.1698742 4.315979 65.400002
4.3114352 4.3143291 65.375
4.4562941 4.315979 65.400002
4.6012621 4.3176279 65.425003
4.7481532 4.3209291 65.475006
4.89713 4.3258781 65.550003
5.0464368 4.3308272 65.625008
5.2118878 4.3489752 65.900002
5.3907361 4.3770232 66.325005
5.5526652 4.3902211 66.525002
5.7069039 4.396821 66.625008
5.859385 4.4017711 66.700005
6.0076928 4.40342 66.725006
6.1561098 4.4050698 66.75
6.2999158 4.40342 66.725006
6.4411969 4.4001198 66.675003
6.5773201 4.3935208 66.575005
6.7104802 4.385272 66.450005
6.8379331 4.373723 66.275002
6.9698892 4.3654742 66.150002
7.109364 4.362174 66.099998
7.2486191 4.3588748 66.050003
7.3932528 4.3588748 66.050003
7.5407391 4.3605242 66.075005
7.688334 4.362174 66.099998
7.8390031 4.3654742 66.150002
7.9898901 4.3687739 66.200005
8.1440668 4.373723 66.275002
8.2985725 4.3786721 66.349998
8.4565907 4.385272 66.450005
8.6118088 4.3902211 66.525002
8.767355 4.3951712 66.599998
8.9165392 4.396821 66.625008
9.0624313 4.396821 66.625008
9.2083254 4.396821 66.625008
9.3542175 4.396821 66.625008
9.5001106 4.396821 66.625008
9.649622 4.3984709 66.650002
9.799243 4.4001198 66.675003
-9.4212132 4.7403011 69.525002
-9.1856461 4.6976881 68.900002
-8.9921551 4.675529 68.574997
-8.7936392 4.649961 68.200005
-8.6157789 4.6346202 67.975006
-8.4575891 4.6295061 67.900002
-8.2997274 4.624393 67.825005
-8.1451979 4.6209841 67.775002
-7.9908881 4.6175742 67.725006
-7.8367958 4.6141648 67.675003
-7.6800842 4.6090522 67.600006
-7.526485 4.6056428 67.550003
-7.3703752 4.6005292 67.475006
-7.2145929 4.5954161 67.400002
-7.0591402 4.590302 67.325005
-6.8809161 4.5698481 67.025009
-6.6738629 4.5289388 66.425003
-6.5161238 4.5204172 66.300003
-6.3661389 4.5170069 66.25
-6.214025 4.5118942 66.175003
-6.059947 4.505075 66.075005
-5.904067 4.4965529 65.949997
-5.7465529 4.4863262 65.800003
-5.5939531 4.479507 65.699997
-5.4438639 4.4743938 65.625008
-5.2920852 4.467576 65.525002
-5.1387801 4.459053 65.400002
-4.9822021 4.4471221 65.225006
-4.830101 4.4385991 65.100006
-4.683948 4.4351902 65.050003
-4.538013 4.4317808 65
-4.3906069 4.4266672 64.925003
-4.2435298 4.4215541 64.850006
-4.0951991 4.4147348 64.75
-3.9442539 4.4045081 64.600006
-3.7939661 4.3942809 64.450005
-3.6471679 4.3874631 64.350006
-3.502171 4.382349 64.275002
-3.357502 4.3772359 64.200005
-3.2144139 4.373827 64.150009
-3.070348 4.3687129 64.075005
-2.928895 4.3670082 64.050003
-2.7853761 4.3618951 63.974998
-2.6401179 4.3533731 63.850002
-2.478765 4.3158731 63.300003
-2.338305 4.3124642 63.250004
-2.1998031 4.3124642 63.250004
-2.062115 4.314168 63.275002
-1.925838 4.3192821 63.350002
-1.7920541 4.331213 63.525002
-1.658154 4.3448501 63.725002
-1.520399 4.3499632 63.800003
-1.381775 4.3533731 63.850002
-1.242931 4.356781 63.900005
-1.103869 4.3601899 63.950001
-0.96496397 4.365304 64.025002
-0.82573098 4.3704181 64.100006
-0.68616998 4.3755312 64.175003
-0.54628003 4.3806448 64.250008
-0.405904 4.3840542 64.300003
-0.265412 4.3891668 64.375
-0.12589601 4.4403028 65.125
0.016731 4.4454169 65.200005
0.159564 4.4471221 65.225006
0.30250701 4.4488258 65.25
0.445389 4.4488258 65.25
0.58827001 4.4488258 65.25
0.73059201 4.4454169 65.200005
0.87035 4.4300771 64.975006
1.003278 4.3891668 64.375
1.1424659 4.382349 64.275002
1.282215 4.3789401 64.224998
1.422298 4.3772359 64.200005
1.56288 4.3772359 64.200005
1.704789 4.3806448 64.250008
1.846917 4.3840542 64.300003
1.990037 4.3891668 64.375
2.1425891 4.4130311 64.725006
2.2984381 4.4403028 65.125
2.4457309 4.4488258 65.25
2.591588 4.453939 65.325005
2.7377739 4.459053 65.400002
2.8831861 4.4624619 65.449997
3.027662 4.4641671 65.475006
3.171036 4.4641671 65.475006
3.3131449 4.4624619 65.449997
3.4551439 4.4607582 65.425003
3.5984089 4.4607582 65.425003
3.7402439 4.459053 65.400002
3.8834541 4.459053 65.400002
4.0266638 4.459053 65.400002
4.1682801 4.4573488 65.375
4.3114352 4.4573488 65.375
4.4562941 4.459053 65.400002
4.6012621 4.4607582 65.425003
4.7499661 4.4658709 65.5
4.8989992 4.4709849 65.575005
5.0522041 4.479507 65.699997
5.2435241 4.5204172 66.300003
5.4029279 4.5323482 66.475006
5.556839 4.539166 66.575005
5.7111869 4.5459838 66.675003
5.8637781 4.5510979 66.75
6.0144458 4.5545068 66.800003
6.1607218 4.5545068 66.800003
6.304636 4.552803 66.775009
6.4460268 4.5493941 66.725006
6.5847292 4.5442801 66.650002
6.7205791 4.5374622 66.550003
6.850831 4.527235 66.400002
6.9830589 4.518712 66.275002
7.1201191 4.513598 66.200005
7.259593 4.5101891 66.150002
7.4044461 4.5101891 66.150002
7.5492978 4.5101891 66.150002
7.6970582 4.5118942 66.175003
7.8449278 4.513598 66.200005
7.995924 4.5170069 66.25
8.1471395 4.5204172 66.300003
8.3017015 4.5255299 66.375008
8.4597721 4.5323482 66.475006
8.6150455 4.5374622 66.550003
8.770647 4.5425749 66.625008
8.9198847 4.5442801 66.650002
9.0658321 4.5442801 66.650002
9.2083254 4.5425749 66.625008
9.3542175 4.5425749 66.625008
9.4965448 4.5408711 66.599998
-9.4381514 4.901195 69.650002
-9.1389847 4.8237901 68.550003
-8.9429817 4.79916 68.200005
-8.7710752 4.7868462 68.025002
-8.6094427 4.779809 67.925003
-8.4513617 4.7745309 67.850006
-8.2966681 4.7710128 67.800003
-8.1391897 4.7657351 67.725006
-7.9849882 4.7622161 67.675003
-7.831007 4.758698 67.625008
-7.6772432 4.7551789 67.575005
-7.5209141 4.7499018 67.5
-7.364913 4.7446241 67.425003
-7.2038889 4.7358279 67.300003
-6.993608 4.6936069 66.700005
-6.824451 4.677774 66.475006
-6.6688399 4.6707368 66.375008
-6.5136671 4.6637001 66.275002
-6.3613348 4.658422 66.200005
-6.2093301 4.6531448 66.125008
-6.0530682 4.6443491 66
-5.8928771 4.6320338 65.825005
-5.7356362 4.621479 65.675003
-5.581181 4.6126828 65.550003
-5.429347 4.6056461 65.449997
-5.2779508 4.598608 65.349998
-5.1250291 4.5898132 65.225006
-4.9726539 4.581017 65.100006
-4.8245358 4.5757389 65.025002
-4.6767468 4.5704608 64.950005
-4.5310321 4.5669432 64.900002
-4.3838439 4.5616651 64.825005
-4.2353501 4.5546279 64.725006
-4.085712 4.5458322 64.600006
-3.9350951 4.5352769 64.450005
-3.788079 4.5282402 64.350006
-3.6415 4.521203 64.250008
-3.4953599 4.5141659 64.150009
-3.3496571 4.5071292 64.050003
-3.2056451 4.5018511 63.974998
-3.065556 4.5018511 63.974998
-2.9231801 4.498333 63.925003
-2.778846 4.4912958 63.825005
-2.6184101 4.4561119 63.325005
-2.4728911 4.4437971 63.150002
-2.3346081 4.4437971 63.150002
-2.1971941 4.4455571 63.175003
-2.0596709 4.4473162 63.200005
-1.922798 4.4508338 63.250004
-1.787117 4.457871 63.350002
-1.652299 4.4684272 63.500004
-1.516229 4.477222 63.625
-1.379069 4.4842591 63.725002
-1.240986 4.4895368 63.800003
-1.102574 4.4948139 63.875
-0.96383399 4.500092 63.950001
-0.82508701 4.5071292 64.050003
-0.68563497 4.5124068 64.125
-0.546067 4.519444 64.224998
-0.40574601 4.5229621 64.275002
-0.26530901 4.5282402 64.350006
-0.125848 4.581017 65.100006
0.016718 4.5845351 65.150002
0.15944199 4.5862942 65.175003
0.30215901 4.5862942 65.175003
0.44453499 4.5827761 65.125
0.58646703 4.577498 65.050003
0.72723001 4.5669432 64.900002
0.865327 4.5458322 64.600006
1.003668 4.5317588 64.400009
1.142911 4.5247211 64.300003
1.282714 4.521203 64.250008
1.422852 4.519444 64.224998
1.564098 4.521203 64.250008
1.706116 4.5247211 64.300003
1.849072 4.5299988 64.375
1.993901 4.538795 64.500008
2.1483819 4.5669432 64.900002
2.2984381 4.5827761 65.125
2.4447939 4.5898132 65.225006
2.591588 4.596849 65.325005
2.736727 4.600368 65.375
2.8820851 4.6038871 65.425003
3.026505 4.6056461 65.449997
3.1698251 4.6056461 65.449997
3.3131449 4.6056461 65.449997
3.4551439 4.6038871 65.425003
3.5984089 4.6038871 65.425003
3.7402439 4.602128 65.400002
3.8834541 4.602128 65.400002
4.0266638 4.602128 65.400002
4.1682801 4.600368 65.375
4.3114352 4.600368 65.375
4.4545898 4.600368 65.375
4.6012621 4.6038871 65.425003
4.7499661 4.6091642 65.5
4.900866 4.6162009 65.599998
5.0637379 4.6337929 65.849998
5.245501 4.6672182 66.325005
5.4049602 4.679533 66.5
5.5589252 4.6865702 66.599998
5.7133288 4.6936069 66.700005
5.8659739 4.698885 66.775009
6.016696 4.7024031 66.825005
6.1630268 4.7024031 66.825005
6.3093572 4.7024031 66.825005
6.4508581 4.698885 66.775009
6.5896702 4.6936069 66.700005
6.7256269 4.6865702 66.599998
6.8585691 4.677774 66.475006
6.9935961 4.6707368 66.375008
7.1308751 4.6654592 66.300003
7.2705679 4.6619411 66.25
7.4156389 4.6619411 66.25
7.56071 4.6619411 66.25
7.705781 4.6619411 66.25
7.8538151 4.6637001 66.275002
8.0019588 4.6654592 66.300003
8.1532841 4.6689768 66.349998
8.3048277 4.6724958 66.400002
8.4629536 4.679533 66.5
8.6182814 4.6848111 66.575005
8.7739382 4.6900878 66.650002
8.9232302 4.6918468 66.675003
9.0692329 4.6918468 66.675003
9.3542175 4.6883292 66.625008
-9.0923233 4.948359 68.200005
-8.9200344 4.9356618 68.025002
-8.7646284 4.932034 67.975006
-8.6062727 4.9265928 67.900002
-8.4513617 4.922965 67.850006
-8.2936096 4.9175229 67.775002
-8.1391897 4.9138961 67.725006
-7.982038 4.908453 67.650002
-7.8281112 4.9048262 67.600006
-7.6744041 4.9011979 67.550003
-7.4958439 4.8812451 67.275009
-7.2939129 4.8449669 66.775009
-7.1316361 4.834084 66.625008
-6.9752579 4.826828 66.525002
-6.8193178 4.819571 66.425003
-6.6663289 4.8141298 66.349998
-6.51121 4.8068738 66.25
-6.358932 4.8014331 66.175003
-6.2022872 4.7923632 66.050003
-6.0438972 4.7814798 65.900002
-5.8794479 4.7651539 65.675003
-5.72472 4.7560849 65.550003
-5.570538 4.747015 65.425003
-5.4189782 4.7397599 65.325005
-5.2658358 4.73069 65.200005
-5.1132431 4.721621 65.075005
-4.9631062 4.714365 64.975006
-4.8171172 4.7107372 64.925003
-4.6713462 4.707109 64.875
-4.5240502 4.7016668 64.800003
-4.3770819 4.6962261 64.725006
-4.228806 4.6889701 64.625
-4.0793872 4.6799002 64.500008
-3.930516 4.6708312 64.375
-3.782192 4.6617608 64.250008
-3.635833 4.6545062 64.150009
-3.4899111 4.6472502 64.050003
-3.3405049 4.634552 63.875
-3.181844 4.6073442 63.500004
-3.0356071 4.5964599 63.350002
-2.8957429 4.5946469 63.325005
-2.7516339 4.585577 63.200005
-2.6091061 4.578321 63.100006
-2.469954 4.5765071 63.075001
-2.331835 4.5765071 63.075001
-2.194586 4.578321 63.100006
-2.0572269 4.5801349 63.125004
-1.920519 4.5837631 63.175003
-1.784296 4.5892048 63.250004
-1.648396 4.5964599 63.350002
-1.5126539 4.6055298 63.475002
-1.375823 4.6127858 63.575005
-1.239041 4.6218548 63.700001
-1.10128 4.6291099 63.800003
-0.96307999 4.6363668 63.900005
-0.82444298 4.6436219 64.000008
-0.68510097 4.6490641 64.075005
-0.54564202 4.6563201 64.175003
-0.40542999 4.6599469 64.224998
-0.265102 4.6653891 64.300003
-0.125848 4.723434 65.100006
0.016705001 4.723434 65.100006
0.15925901 4.723434 65.100006
0.30181199 4.723434 65.100006
0.44385299 4.7179928 65.025002
0.58534002 4.7107372 64.925003
0.72582901 4.6998529 64.775002
0.86465698 4.6835279 64.550003
1.004058 4.674459 64.425003
1.143355 4.6672029 64.325005
1.283213 4.6635752 64.275002
1.423959 4.6635752 64.275002
1.565315 4.6653891 64.300003
1.708106 4.6708312 64.375
1.851944 4.6780872 64.475006
1.999311 4.6925979 64.675003
2.1508651 4.714365 64.975006
2.2984381 4.7252479 65.125
2.4447939 4.7325039 65.225006
2.591588 4.7397599 65.325005
2.7377739 4.7452021 65.400002
2.8820851 4.747015 65.425003
3.026505 4.7488289 65.449997
3.1698251 4.7488289 65.449997
3.3131449 4.7488289 65.449997
3.4564641 4.7488289 65.449997
3.5997839 4.7488289 65.449997
3.743103 4.7488289 65.449997
3.884938 4.747015 65.425003
4.028203 4.747015 65.425003
4.1698742 4.7452021 65.400002
4.3114352 4.7433872 65.375
4.4545898 4.7433872 65.375
4.6012621 4.747015 65.425003
4.7499661 4.7524571 65.5
4.9046021 4.76334 65.650002
5.075274 4.7887349 66
5.2415462 4.8086882 66.275002
5.4008961 4.8213859 66.450005
5.556839 4.8304548 66.575005
5.7111869 4.8377109 66.675003
5.8637781 4.843153 66.75
6.0144458 4.8467808 66.800003
6.1630268 4.8485951 66.825005
6.3093572 4.8485951 66.825005
6.4508581 4.8449669 66.775009
6.5896702 4.8395252 66.700005
6.7281518 4.834084 66.625008
6.8663068 4.8286409 66.550003
7.0014982 4.8213859 66.450005
7.1389408 4.8159442 66.375008
7.2815418 4.8141298 66.349998
7.4240341 4.8123159 66.325005
7.5664172 4.810503 66.300003
7.711597 4.810503 66.300003
7.8567781 4.810503 66.300003
8.0049763 4.8123159 66.325005
8.1563559 4.8159442 66.375008
8.3110819 4.8213859 66.450005
8.4693174 4.8286409 66.550003
8.624754 4.834084 66.625008
8.7805204 4.8395252 66.700005
8.9299221 4.8413391 66.725006
9.0760336 4.8413391 66.725006
9.2186909 4.8395252 66.700005
-9.115653 5.11064 68.375
-8.9134779 5.0807419 67.975006
-8.761404 5.0788741 67.950005
-8.6062727 5.0751362 67.900002
-8.448247 5.06953 67.825005
-8.2936096 5.065793 67.775002
-8.1391897 5.0620561 67.725006
-7.9849882 5.0583181 67.675003
-7.8281112 5.0527129 67.600006
-7.64884 5.0321579 67.325005
-7.4373479 4.9891801 66.75
-7.2802591 4.9817061 66.650002
-7.1262841 4.9761 66.575005
-6.970016 4.968626 66.475006
-6.816752 4.9630198 66.400002
-6.663816 4.9574142 66.325005
-6.5087528 4.9499402 66.225006
-6.3565302 4.944334 66.150002
-6.1999388 4.9349899 66.025002
-6.0324321 4.9163051 65.775002
-5.868258 4.899487 65.550003
-5.7116189 4.8882761 65.400002
-5.559895 4.8808012 65.300003
-5.4044609 4.8695898 65.150002
-5.2537222 4.8621149 65.050003
-5.1034212 4.85464 64.950005
-4.9554672 4.8490338 64.875
-4.8096972 4.8452978 64.825005
-4.6641459 4.8415599 64.775002
-4.5188141 4.8378229 64.725006
-4.3720102 4.8322182 64.650002
-4.2238979 4.8247428 64.550003
-4.0746441 4.8154001 64.425003
-3.9274631 4.8079262 64.325005
-3.78072 4.8004508 64.224998
-3.6329989 4.7911081 64.100006
-3.480376 4.7742901 63.875
-3.318279 4.7425241 63.450005
-3.171823 4.7313118 63.300003
-3.028419 4.7238379 63.200005
-2.8877399 4.7201009 63.150002
-2.7472799 4.716363 63.100006
-2.607039 4.712626 63.050003
-2.4679959 4.7107582 63.025005
-2.329987 4.7107582 63.025005
-2.192847 4.712626 63.050003
-2.0555971 4.7144952 63.075001
-1.919758 4.7201009 63.150002
-1.782886 4.7238379 63.200005
-1.646445 4.729444 63.275002
-1.510271 4.736918 63.375004
-1.373659 4.7443919 63.475002
-1.2366101 4.7518668 63.575005
-1.099553 4.76121 63.700001
-0.96195 4.7705541 63.825005
-0.82347703 4.778028 63.925003
-0.68483299 4.7873712 64.050003
-0.54543 4.7948461 64.150009
-0.40527299 4.7985821 64.200005
-0.26489601 4.80232 64.250008
-0.12589601 4.8677211 65.125
0.016712001 4.8677211 65.125
0.15925901 4.8658519 65.100006
0.30158001 4.8621149 65.050003
0.44351199 4.8565092 64.975006
0.58488899 4.8490338 64.875
0.72526902 4.8378229 64.725006
0.86465698 4.8247428 64.550003
1.004058 4.8154001 64.425003
1.1437989 4.8097939 64.350006
1.283712 4.806056 64.300003
1.4250669 4.8079262 64.325005
1.566532 4.8097939 64.350006
1.710096 4.8172679 64.450005
1.855534 4.8284798 64.600006
2.003175 4.8434291 64.800003
2.152519 4.8602462 65.025002
2.29932 4.8695898 65.150002
2.4457309 4.8770642 65.25
2.5925801 4.8845382 65.349998
2.7388201 4.8901439 65.425003
2.8831861 4.8920131 65.449997
3.027662 4.8938808 65.475006
3.171036 4.8938808 65.475006
3.31441 4.8938808 65.475006
3.4577849 4.8938808 65.475006
3.6011591 4.8938808 65.475006
3.7445331 4.8938808 65.475006
3.887908 4.8938808 65.475006
4.0297418 4.8920131 65.449997
4.1714678 4.8901439 65.425003
4.3130841 4.8882761 65.400002
4.4562941 4.8882761 65.400002
4.6012621 4.8901439 65.425003
4.7481532 4.8938808 65.475006
4.91394 4.9163051 65.775002
5.0791178 4.9368601 66.050003
5.2356148 4.948071 66.200005
5.3948002 4.9611511 66.375008
5.5526652 4.972363 66.525002
5.7090459 4.9817061 66.650002
5.8615808 4.9873118 66.725006
6.0121951 4.9910488 66.775009
6.1607218 4.992918 66.800003
