ply
format ascii 1.0
comment PCL generated
element vertex 1585
property float x
property float y
property float z
element face 0
element camera 0
property float view_px
property float view_py
property float view_pz
property float x_axisx
property float x_axisy
property float x_axisz
property float y_axisx
property float y_axisy
property float y_axisz
property float z_axisx
property float z_axisy
property float z_axisz
property float focal
property float scalex
property float scaley
property float centerx
property float centery
property int viewportx
property int viewporty
property float k1
property float k2
end_header
-2.982388 9.0162392 68.500008
-2.8323901 9.0162392 68.500008
-2.6823919 9.0162392 68.500008
-2.532393 9.0162392 68.500008
-2.382395 9.0162392 68.500008
-2.233211 9.0195293 68.525002
-2.0839181 9.0228205 68.550003
-1.93381 9.0228205 68.550003
-1.784353 9.0261106 68.574997
-1.634191 9.0261106 68.574997
-1.484569 9.0294018 68.600006
-1.334838 9.032692 68.625
-1.185429 9.0392742 68.675003
-1.0358011 9.0458546 68.724998
-0.88627601 9.0557261 68.800003
-0.73642302 9.0655975 68.875
-0.58602899 9.0721798 68.925003
-0.43557301 9.0820513 69.000008
-0.284686 9.0886326 69.050003
-0.13362899 9.0985041 69.125
-5.7466459 9.2697992 69.275002
-5.5909128 9.2631083 69.224998
-5.433434 9.2530727 69.150002
-5.2762842 9.2430372 69.075005
-5.119462 9.2330017 69.000008
-4.9611678 9.2196198 68.900002
-4.805058 9.2095833 68.824997
-4.6509671 9.2028942 68.775002
-4.4954581 9.1928577 68.700005
-4.3418589 9.1861677 68.650002
-4.1884799 9.1794767 68.600006
-4.0367908 9.1761312 68.574997
-3.885211 9.1727858 68.550003
-3.7351041 9.1727858 68.550003
-3.584996 9.1727858 68.550003
-3.4348879 9.1727858 68.550003
-3.284781 9.1727858 68.550003
-3.1346731 9.1727858 68.550003
-2.984565 9.1727858 68.550003
-2.8334229 9.1694403 68.525002
-2.6833701 9.1694403 68.525002
-2.5333171 9.1694403 68.525002
-2.3841341 9.1727858 68.550003
-2.234026 9.1727858 68.550003
-2.0846779 9.1761312 68.574997
-1.934516 9.1761312 68.574997
-1.785004 9.1794767 68.600006
-1.634786 9.1794767 68.600006
-1.484569 9.1794767 68.600006
-1.334838 9.1828222 68.625
-1.185429 9.1895123 68.675003
-1.036178 9.1995487 68.750008
-0.88659799 9.2095833 68.824997
-0.73668998 9.2196198 68.900002
-0.58645397 9.2296553 68.974998
-0.43573099 9.2363472 69.025002
-0.284789 9.2430372 69.075005
-0.13362899 9.2497272 69.125
-5.5949512 9.4213495 69.275002
-5.4373631 9.41115 69.200005
-5.282012 9.4043503 69.150002
-5.1268811 9.3975506 69.100006
-4.968369 9.3839512 69.000008
-4.8120389 9.3737507 68.925003
-4.6560378 9.3635511 68.850006
-4.5020018 9.3567495 68.800003
-4.3466029 9.3465509 68.724998
-4.193059 9.3397512 68.675003
-4.0412059 9.3363504 68.650002
-3.889462 9.3329515 68.625
-3.737828 9.3295517 68.600006
-3.587611 9.3295517 68.600006
-3.4373939 9.3295517 68.600006
-3.2871759 9.3295517 68.600006
-3.1369591 9.3295517 68.600006
-2.9856529 9.3261499 68.574997
-2.8354909 9.3261499 68.574997
-2.685328 9.3261499 68.574997
-2.535166 9.3261499 68.574997
-2.3850031 9.3261499 68.574997
-2.235656 9.3295517 68.600006
-2.085438 9.3295517 68.600006
-1.935221 9.3295517 68.600006
-1.785004 9.3295517 68.600006
-1.634786 9.3295517 68.600006
-1.48511 9.3329515 68.625
-1.335324 9.3363504 68.650002
-1.185861 9.3431511 68.700005
-1.0365551 9.3533506 68.775002
-0.88692099 9.3635511 68.850006
-0.737225 9.3771505 68.950005
-0.58687901 9.387351 69.025002
-0.43604699 9.3941507 69.075005
-0.28499499 9.4009504 69.125
-0.133725 9.4077501 69.175003
-5.4432559 9.5729027 69.275002
-5.2877421 9.5659924 69.224998
-5.1305909 9.5556278 69.150002
-4.9737692 9.5452652 69.075005
-4.817276 9.5349016 69.000008
-4.6611099 9.5245371 68.925003
-4.5052738 9.5141745 68.850006
-4.3497648 9.503809 68.775002
-4.1961122 9.4968987 68.724998
-4.0426779 9.4899902 68.675003
-3.8908789 9.4865351 68.650002
-3.7391911 9.4830799 68.625
-3.588918 9.4830799 68.625
-3.4386461 9.4830799 68.625
-3.2883739 9.4830799 68.625
-3.138103 9.4830799 68.625
-2.9878299 9.4830799 68.625
-2.836524 9.4796267 68.600006
-2.686307 9.4796267 68.600006
-2.5360899 9.4796267 68.600006
-2.3867421 9.4830799 68.625
-2.23647 9.4830799 68.625
-2.0861981 9.4830799 68.625
-1.935926 9.4830799 68.625
-1.7856539 9.4830799 68.625
-1.6353821 9.4830799 68.625
-1.48511 9.4830799 68.625
-1.335324 9.4865351 68.650002
-1.185861 9.4934444 68.700005
-1.036932 9.5072632 68.800003
-0.88756502 9.5210819 68.900002
-0.73776001 9.5349016 69.000008
-0.587304 9.5452652 69.075005
-0.436362 9.5521736 69.125
-0.285202 9.5590839 69.175003
-0.133774 9.5625381 69.200005
-5.44522 9.7279634 69.300003
-5.2896509 9.7209444 69.250008
-5.1324458 9.7104168 69.175003
-4.9755688 9.6998882 69.100006
-4.8190212 9.6893597 69.025002
-4.6628008 9.6788321 68.950005
-4.5069098 9.6683044 68.875
-4.351346 9.6577759 68.800003
-4.197639 9.6507578 68.750008
-4.0441489 9.6437387 68.700005
-3.8908789 9.6367197 68.650002
-3.7391911 9.6332102 68.625
-3.587611 9.6297007 68.600006
-3.4373939 9.6297007 68.600006
-3.2883739 9.6332102 68.625
-3.138103 9.6332102 68.625
-2.9878299 9.6332102 68.625
-2.837558 9.6332102 68.625
-2.6882651 9.6367197 68.650002
-2.5379381 9.6367197 68.650002
-2.3876121 9.6367197 68.650002
-2.2372849 9.6367197 68.650002
-2.0869579 9.6367197 68.650002
-1.936631 9.6367197 68.650002
-1.7856539 9.6332102 68.625
-1.6353821 9.6332102 68.625
-1.48511 9.6332102 68.625
-1.335324 9.6367197 68.650002
-1.185861 9.6437387 68.700005
-1.036932 9.6577759 68.800003
-0.887887 9.6753225 68.925003
-0.73802698 9.6893597 69.025002
-0.58772898 9.7033978 69.125
-0.43667799 9.7104168 69.175003
-0.28540799 9.7174358 69.224998
-0.13387001 9.7209444 69.250008
-4.0426779 9.7904673 68.675003
-3.889462 9.7833405 68.625
-3.7364659 9.7762108 68.574997
-3.584996 9.7726469 68.550003
-3.4348879 9.7726469 68.550003
-3.2859781 9.7762108 68.574997
-3.1369591 9.7797756 68.600006
-2.9878299 9.7833405 68.625
-2.8385921 9.7869034 68.650002
-2.6882651 9.7869034 68.650002
-2.5388629 9.7904673 68.675003
-2.3884809 9.7904673 68.675003
-2.2381001 9.7904673 68.675003
-2.087718 9.7904673 68.675003
-1.936631 9.7869034 68.650002
-1.7856539 9.7833405 68.625
-1.634786 9.7797756 68.600006
-1.484028 9.7762108 68.574997
-1.334838 9.7833405 68.625
-1.185861 9.7940321 68.700005
-5.4536142 9.7742443 67.525009
-5.3077149 9.7778625 67.550003
-5.1597972 9.7778625 67.550003
-5.0100241 9.7742443 67.525009
-3.55231 2.8480339 67.925003
-3.404824 2.849082 67.950005
-3.258425 2.8511779 68
-3.112952 2.8543229 68.075005
-2.6843491 2.874239 68.550003
-2.5379381 2.878432 68.650002
-2.3893509 2.880528 68.700005
-2.2405441 2.8826251 68.750008
-2.0915179 2.884721 68.800003
-1.942979 2.887866 68.875
-1.79346 2.8899629 68.925003
-1.6443191 2.8931069 69.000008
-1.494849 2.8962519 69.075005
-1.34505 2.8993959 69.150002
-3.852622 2.998837 67.975006
-3.7024109 2.997735 67.950005
-3.55231 2.9966321 67.925003
-3.404824 2.997735 67.950005
-3.258425 2.9999399 68
-3.111809 3.002146 68.050003
-2.9682381 3.0076611 68.175003
-2.830322 3.019793 68.450005
-2.685328 3.0253069 68.574997
-2.5379381 3.028616 68.650002
-2.3893509 3.030822 68.700005
-2.2405441 3.0330279 68.750008
-2.0915179 3.035234 68.800003
-1.942979 3.038543 68.875
-1.79346 3.0407479 68.925003
-1.6443191 3.0440569 69.000008
-1.4953901 3.0484691 69.100006
-1.345536 3.0517781 69.175003
-1.1953551 3.0550871 69.250008
-4.1579518 3.1533329 68.100006
-4.004415 3.1498599 68.025002
-3.852622 3.1475451 67.975006
-3.7024109 3.1463871 67.950005
-3.55231 3.1452301 67.925003
-3.4035709 3.1452301 67.925003
-3.2572279 3.1475451 67.975006
-3.110666 3.1498599 68.025002
-2.9660611 3.15449 68.125
-2.8344569 3.17417 68.550003
-2.6872859 3.1776431 68.625
-2.5388629 3.1799581 68.675003
-2.3902199 3.1822729 68.724998
-2.2405441 3.1834309 68.750008
-2.0915179 3.185746 68.800003
-1.942979 3.189219 68.875
-1.794111 3.192692 68.950005
-1.644914 3.1961651 69.025002
-1.4953901 3.1996369 69.100006
-1.345536 3.20311 69.175003
-1.195786 3.207741 69.275002
-1.045221 3.2112141 69.350006
-0.894328 3.2146859 69.425003
-4.3165612 3.309588 68.25
-4.1594782 3.3035259 68.125
-4.0058861 3.2998891 68.050003
-3.854039 3.2974651 68
-3.7024109 3.2950399 67.950005
-3.55231 3.293828 67.925003
-3.4035709 3.293828 67.925003
-3.2560301 3.2950399 67.950005
-3.1095221 3.2974651 68
-2.964972 3.302314 68.100006
-2.8344569 3.3241351 68.550003
-2.686307 3.32656 68.600006
-2.5379381 3.328984 68.650002
-2.3893509 3.331409 68.700005
-2.2405441 3.3338339 68.750008
-2.0915179 3.3362579 68.800003
-1.942979 3.339895 68.875
-1.794111 3.3435321 68.950005
-1.644914 3.3471689 69.025002
-1.495931 3.3520181 69.125
-1.346509 3.356868 69.224998
-1.196218 3.3605039 69.300003
-1.045975 3.3653541 69.400002
-0.89497203 3.3689899 69.474998
-0.74390799 3.3738401 69.575005
-4.6340599 3.4728341 68.525002
-4.4758282 3.4664979 68.400002
-4.3181419 3.4601641 68.275002
-4.161005 3.4538291 68.150002
-4.0073581 3.450027 68.075005
-3.854039 3.4462271 68
-3.7024109 3.4436929 67.950005
-3.55231 3.442426 67.925003
-3.4035709 3.442426 67.925003
-3.254832 3.442426 67.925003
-3.1083789 3.4449601 67.975006
-2.962795 3.448761 68.050003
-2.831356 3.4703 68.474998
-2.685328 3.475368 68.574997
-2.537014 3.4779019 68.625
-2.3884809 3.4804361 68.675003
-2.2397289 3.48297 68.724998
-2.0915179 3.4867699 68.800003
-1.942979 3.490572 68.875
-1.794111 3.4943731 68.950005
-1.64551 3.49944 69.050003
-1.495931 3.5032411 69.125
-1.346509 3.5083089 69.224998
-1.196649 3.513377 69.325005
-1.046351 3.518445 69.425003
-0.89561599 3.5235131 69.525002
-0.74470901 3.5298481 69.650002
-0.59368098 3.538718 69.825005
-4.9485669 3.6333179 68.724998
-4.79284 3.629353 68.650002
-4.6357508 3.6240661 68.550003
-4.4774642 3.6174581 68.425003
-4.3197231 3.6108489 68.300003
-4.1640582 3.605562 68.200005
-4.0088301 3.600276 68.100006
-3.8554561 3.5963111 68.025002
-3.7024109 3.592346 67.950005
-3.55231 3.5910239 67.925003
-3.402318 3.5897019 67.900002
-3.253634 3.5897019 67.900002
-3.1060929 3.5910239 67.925003
-2.960618 3.5949891 68
-2.8199849 3.605562 68.200005
-2.681412 3.620101 68.474998
-2.535166 3.6253879 68.574997
-2.3867421 3.628031 68.625
-2.238914 3.6319959 68.700005
-2.0907581 3.635962 68.775002
-1.942274 3.639926 68.850006
-1.794111 3.6452129 68.950005
-1.64551 3.6505001 69.050003
-1.496472 3.655787 69.150002
-1.346509 3.6597519 69.224998
-1.196649 3.6650391 69.325005
-1.046728 3.6716471 69.450005
-0.89626002 3.678256 69.575005
-0.745511 3.6861849 69.724998
-0.59410602 3.6941161 69.875
-0.441728 3.6994021 69.974998
-5.1046228 3.787796 68.800003
-4.9485669 3.7836659 68.724998
-4.79284 3.779537 68.650002
-4.6374412 3.775408 68.574997
-4.4790988 3.7685261 68.450005
-4.3213038 3.7616439 68.325005
-4.1655841 3.756139 68.225006
-4.0088301 3.7492571 68.100006
-3.8554561 3.7451279 68.025002
-3.7024109 3.740999 67.950005
-3.551003 3.738246 67.900002
-3.4010661 3.7368701 67.875
-3.2524359 3.7368701 67.875
-3.104949 3.738246 67.900002
-2.958442 3.740999 67.950005
-2.8137829 3.7465041 68.050003
-2.672601 3.757515 68.25
-2.530545 3.7685261 68.450005
-2.3850031 3.775408 68.574997
-2.2372849 3.779537 68.650002
-2.089998 3.785043 68.750008
-1.942274 3.7905481 68.850006
-1.794111 3.7960539 68.950005
-1.64551 3.801559 69.050003
-1.495931 3.8056879 69.125
-1.346509 3.8111939 69.224998
-1.196649 3.8167 69.325005
-1.046728 3.823581 69.450005
-0.89658201 3.83184 69.600006
-0.74604601 3.8414741 69.775002
-0.59431899 3.848356 69.900009
-0.441728 3.8524849 69.974998
-5.2590981 3.94117 68.850006
-5.1046228 3.938308 68.800003
-4.950367 3.935446 68.750008
-4.7945862 3.9311521 68.675003
-4.6374412 3.9254279 68.574997
-4.4807348 3.919703 68.474998
-4.322886 3.9125481 68.350006
-4.1655841 3.9053929 68.225006
-4.0103011 3.899668 68.125
-3.8554561 3.893945 68.025002
-3.70105 3.8882201 67.925003
-3.549695 3.8853581 67.875
-3.39856 3.8824961 67.825005
-3.2500401 3.8824961 67.825005
-3.102663 3.8839271 67.850006
-2.956265 3.8867891 67.900002
-2.8106811 3.891082 67.975006
-2.666728 3.8982379 68.100006
-2.5249989 3.9096861 68.300003
-2.381525 3.919703 68.474998
-2.23647 3.9282899 68.625
-2.0892379 3.9340141 68.724998
-1.941568 3.939739 68.824997
-1.79346 3.9454629 68.925003
-1.644914 3.9511869 69.025002
-1.4953901 3.9554811 69.100006
-1.345536 3.959774 69.175003
-1.195786 3.965498 69.275002
-1.045598 3.9712219 69.375
-0.89593798 3.98124 69.550003
-0.74604601 3.9941199 69.775002
-0.59410602 3.9998429 69.875
-0.44141299 4.0027061 69.925003
-5.2590981 4.0917921 68.850006
-5.1046228 4.08882 68.800003
-4.950367 4.0858488 68.750008
-4.7945862 4.0813909 68.675003
-4.6374412 4.075448 68.574997
-4.4807348 4.0695052 68.474998
-4.322886 4.0620761 68.350006
-4.1655841 4.054647 68.225006
-4.0103011 4.0487041 68.125
-3.854039 4.041276 68
-3.699687 4.0353322 67.900002
-3.54708 4.0308752 67.825005
-3.396055 4.027904 67.775002
-3.2464459 4.0264182 67.75
-3.0992329 4.027904 67.775002
-2.9529991 4.0308752 67.825005
-2.80758 4.0353322 67.900002
-2.6637909 4.0427608 68.025002
-2.519454 4.05019 68.150002
-2.378047 4.0635619 68.375
-2.2348411 4.075448 68.574997
-2.0892379 4.084363 68.724998
-1.941568 4.0903058 68.824997
-1.79346 4.0962491 68.925003
-1.6443191 4.1007071 69.000008
-1.494849 4.1051641 69.075005
-1.344564 4.1081352 69.125
-1.194491 4.1125922 69.200005
-1.044467 4.118536 69.300003
-0.89464998 4.12745 69.450005
-0.74524403 4.1423068 69.700005
-0.59368098 4.1497359 69.825005
-0.44109699 4.1527081 69.875
-0.28829399 4.1556792 69.925003
-5.4118261 4.2439542 68.875
-5.2590981 4.242413 68.850006
-5.1046228 4.2393322 68.800003
-4.950367 4.2362509 68.750008
-4.79284 4.2300901 68.650002
-4.6357508 4.223927 68.550003
-4.4790988 4.2177658 68.450005
-4.322886 4.2116041 68.350006
-4.1655841 4.2039018 68.225006
-4.0088301 4.1961999 68.100006
-3.852622 4.1884971 67.975006
-3.6969631 4.1807952 67.850006
-3.5431581 4.174633 67.75
-3.392297 4.1715522 67.700005
-3.242852 4.170012 67.675003
-3.095804 4.1715522 67.700005
-2.949734 4.174633 67.75
-2.8044789 4.1792541 67.825005
-2.6608541 4.1869569 67.950005
-2.5157571 4.193119 68.050003
-2.3745689 4.2069831 68.275002
-2.2348411 4.2254682 68.574997
-2.0884781 4.233171 68.700005
-1.940863 4.2393322 68.800003
-1.792159 4.2439542 68.875
-1.643127 4.2485752 68.950005
-1.4932261 4.2516561 69.000008
-1.343591 4.256278 69.075005
-1.193197 4.2593579 69.125
-1.04296 4.263979 69.200005
-0.892717 4.2701411 69.300003
-0.74390799 4.287086 69.575005
-0.59304303 4.2978702 69.750008
-0.44062299 4.300951 69.800003
-0.287985 4.3040309 69.850006
-5.4118261 4.39463 68.875
-5.2590981 4.3930349 68.850006
-5.1046228 4.3898439 68.800003
-4.9485669 4.3850589 68.724998
-4.7910948 4.3786788 68.625
-4.6340599 4.3722978 68.525002
-4.4774642 4.3659182 68.425003
-4.3213038 4.3595371 68.325005
-4.1640582 4.3515611 68.200005
-4.0073581 4.343585 68.075005
-3.849788 4.3340149 67.925003
-3.6928761 4.3244438 67.775002
-3.5405431 4.3196578 67.700005
-3.3885391 4.3148732 67.625008
-3.2404561 4.3148732 67.625008
-3.0923741 4.3148732 67.625008
-2.9464681 4.3180628 67.675003
-2.802412 4.3244438 67.775002
-2.657917 4.3308239 67.875
-2.512984 4.337204 67.975006
-2.3719611 4.3515611 68.200005
-2.2348411 4.3754878 68.574997
-2.087718 4.3818688 68.675003
-1.940158 4.3882499 68.775002
-1.791509 4.3930349 68.850006
-1.641935 4.396225 68.900002
-1.492144 4.399415 68.950005
-1.342132 4.402606 69.000008
-1.191902 4.4057961 69.050003
-1.041453 4.408987 69.100006
-0.89110702 4.4137721 69.175003
-0.74176902 4.4265332 69.375
-0.59219301 4.4440789 69.650002
-0.44014999 4.4488649 69.724998
-0.28767499 4.452055 69.775002
-0.134982 4.455245 69.825005
-5.409862 4.5436559 68.850006
-5.2552781 4.5403571 68.800003
-5.100914 4.5370569 68.750008
-4.9449668 4.5321078 68.675003
-4.7876039 4.5255079 68.574997
-4.63237 4.5205588 68.500008
-4.4758282 4.5139589 68.400002
-4.3181419 4.5057101 68.275002
-4.161005 4.4974608 68.150002
-4.002943 4.4875622 68
-3.8455379 4.477663 67.850006
-3.6901519 4.4694142 67.725006
-3.5366211 4.4628139 67.625008
-3.3860331 4.4595151 67.575005
-3.2368629 4.4578652 67.550003
-3.0900879 4.4595151 67.575005
-2.9442921 4.4628139 67.625008
-2.7993109 4.4677639 67.700005
-2.6559589 4.4760132 67.825005
-2.5111361 4.4826131 67.925003
-2.3710921 4.4991112 68.175003
-2.234026 4.523859 68.550003
-2.0869579 4.530458 68.650002
-1.938747 4.5354071 68.724998
-1.790208 4.5403571 68.800003
-1.640744 4.5436559 68.850006
-1.49052 4.5453062 68.875
-1.340673 4.5486059 68.925003
-1.190608 4.5519061 68.974998
-1.040323 4.5552049 69.025002
-0.89014101 4.5601549 69.100006
-0.740165 4.5684042 69.224998
-0.590918 4.5865531 69.500008
-0.43967599 4.5964508 69.650002
-0.287469 4.6014009 69.724998
-0.134885 4.604701 69.775002
-5.560627 4.6942792 68.850006
-5.4059329 4.6908689 68.800003
-5.2533679 4.6891651 68.775002
-5.0972028 4.684052 68.700005
-4.9413671 4.6789379 68.625
-4.7858591 4.6738238 68.550003
-4.6289878 4.667006 68.450005
-4.4725561 4.6601882 68.350006
-4.31498 4.6516652 68.225006
-4.1579518 4.6431432 68.100006
-4 4.632915 67.950005
-3.8427041 4.6226878 67.800003
-3.686065 4.6124611 67.650002
-3.5340061 4.607347 67.575005
-3.3822751 4.6022339 67.5
-3.233268 4.6005292 67.475006
-3.086658 4.6022339 67.5
-2.9421151 4.607347 67.575005
-2.7982769 4.6141648 67.675003
-2.6549799 4.6226878 67.800003
-2.5111361 4.6312108 67.925003
-2.3745689 4.6550741 68.275002
-2.233211 4.6721201 68.525002
-2.085438 4.6772342 68.600006
-1.938042 4.684052 68.700005
-1.7889071 4.6874599 68.750008
-1.639553 4.6908689 68.800003
-1.4894381 4.692574 68.824997
-1.3397011 4.6959829 68.875
-1.1893131 4.6976881 68.900002
-1.039569 4.7028012 68.974998
-0.88949698 4.7079139 69.050003
-0.73936301 4.7147331 69.150002
-0.58985502 4.7300739 69.375
-0.43920299 4.74371 69.575005
-0.28726301 4.7505279 69.675003
-0.13478801 4.7539368 69.724998
-5.5565882 4.841382 68.800003
-5.4039688 4.839622 68.775002
-5.2495489 4.8361039 68.724998
-5.093493 4.8308258 68.650002
-4.9377661 4.8255491 68.574997
-4.780622 4.818512 68.474998
-4.625607 4.8132339 68.400002
-4.4692841 4.8061972 68.300003
-4.3118181 4.797401 68.175003
-4.1533728 4.7868462 68.025002
-3.997056 4.778049 67.900002
-3.83987 4.7674942 67.75
-3.6847031 4.758698 67.625008
-3.5313909 4.7516608 67.525009
-3.37977 4.7463841 67.450005
-3.2320709 4.7463841 67.450005
-3.085515 4.7481432 67.475006
-2.9399381 4.7516608 67.525009
-2.7962091 4.758698 67.625008
-2.654001 4.7692542 67.775002
-2.514833 4.7868462 68.025002
-2.377178 4.8097162 68.350006
-2.2315819 4.818512 68.474998
-2.0839181 4.8237901 68.550003
-1.936631 4.8308258 68.650002
-1.787606 4.8343439 68.700005
-1.637765 4.8361039 68.724998
-1.488356 4.839622 68.775002
-1.3382421 4.841382 68.800003
-1.188882 4.8466592 68.875
-1.038816 4.8501778 68.925003
-0.889175 4.857214 69.025002
-0.73909599 4.8642521 69.125
-0.58921701 4.8765659 69.300003
-0.43873 4.8906398 69.500008
-0.28695399 4.8976769 69.600006
-0.13474 4.9047141 69.700005
-5.4000401 4.9864521 68.724998
-5.2457299 4.9828238 68.675003
-5.0897841 4.9773831 68.600006
-4.934166 4.971941 68.525002
-4.777132 4.964685 68.425003
-4.6222262 4.9592438 68.350006
-4.464376 4.9501729 68.225006
-4.3070741 4.9411039 68.100006
-4.1503201 4.932034 67.975006
-3.992641 4.9211512 67.825005
-3.8370359 4.9120822 67.700005
-3.6819789 4.9030118 67.575005
-3.5287759 4.8957558 67.475006
-3.3785169 4.892128 67.425003
-3.2296751 4.8903151 67.400002
-3.0832281 4.892128 67.425003
-2.938849 4.8975701 67.5
-2.795176 4.9048262 67.600006
-2.6559589 4.9211512 67.825005
-2.519454 4.9447322 68.150002
-2.3754389 4.955616 68.300003
-2.2299521 4.964685 68.425003
-2.0823979 4.9701271 68.500008
-1.934516 4.9755678 68.574997
-1.7856539 4.979197 68.625
-1.636574 4.9828238 68.675003
-1.4872741 4.9864521 68.724998
-1.337756 4.9900799 68.775002
-1.188018 4.9937081 68.824997
-1.038439 4.9991488 68.900002
-0.88885301 5.0064049 69.000008
-0.73909599 5.0154738 69.125
-0.58900499 5.0263591 69.275002
-0.438256 5.0372419 69.425003
-0.28674799 5.0463109 69.550003
-0.134643 5.0535669 69.650002
-5.7030959 5.138669 68.750008
-5.5505309 5.1367998 68.724998
-5.3980761 5.134932 68.700005
-5.2438202 5.1311941 68.650002
-5.0879278 5.1255879 68.574997
-4.9305658 5.118114 68.474998
-4.7753859 5.1125078 68.400002
-4.6171541 5.1031651 68.275002
-4.4611049 5.0956912 68.175003
-4.30233 5.0844789 68.025002
-4.145741 5.0751362 67.900002
-3.9896979 5.065793 67.775002
-3.8342021 5.0564499 67.650002
-3.6806171 5.0489759 67.550003
-3.5287759 5.0433698 67.475006
-3.377264 5.0377641 67.400002
-3.228477 5.0358949 67.375008
-3.0820849 5.0377641 67.400002
-2.9377611 5.0433698 67.475006
-2.795176 5.0527129 67.600006
-2.6559589 5.06953 67.825005
-2.517606 5.090085 68.100006
-2.3728311 5.0994282 68.225006
-2.2275081 5.1087708 68.350006
-2.080878 5.1162462 68.450005
-1.933105 5.121851 68.525002
-1.784353 5.1255879 68.574997
-1.6353821 5.1293259 68.625
-1.486192 5.1330628 68.675003
-1.3367831 5.1367998 68.724998
-1.187587 5.142406 68.800003
-1.038439 5.1498799 68.900002
-0.88885301 5.1573548 69.000008
-0.73909599 5.166698 69.125
-0.58879203 5.1760411 69.250008
-0.43794101 5.1853838 69.375
-0.286542 5.1947269 69.500008
-0.13459501 5.2040701 69.625
-5.7030959 5.289072 68.750008
-5.5505309 5.287149 68.724998
-5.396111 5.2833018 68.675003
-5.2419109 5.2794561 68.625
-5.0860739 5.273685 68.550003
-4.9287658 5.2659931 68.450005
-4.7718949 5.2582989 68.350006
-4.6137719 5.248682 68.225006
-4.4561968 5.2390671 68.100006
-4.2975869 5.2275271 67.950005
-4.1426878 5.2198329 67.850006
-3.9867539 5.210217 67.725006
-3.8327849 5.2025242 67.625008
-3.6806171 5.196754 67.550003
-3.5274689 5.1890612 67.450005
-3.377264 5.185214 67.400002
-3.228477 5.18329 67.375008
-3.0809419 5.18329 67.375008
-2.936672 5.1890612 67.450005
-2.793108 5.196754 67.550003
-2.6530221 5.2121401 67.75
-2.512984 5.2294502 67.975006
-2.3702221 5.2429128 68.150002
-2.225064 5.2525291 68.275002
-2.0778379 5.2582989 68.350006
-1.930284 5.26407 68.425003
-1.782402 5.2698388 68.500008
-1.634191 5.275609 68.574997
-1.48511 5.2794561 68.625
-1.336297 5.2852249 68.700005
-1.187587 5.2929192 68.800003
-1.038062 5.2986879 68.875
-0.88885301 5.3083048 69.000008
-0.73882902 5.3159981 69.100006
-0.58858001 5.325614 69.224998
-0.437783 5.3352308 69.350006
-0.28643799 5.3448482 69.474998
-0.134499 5.352541 69.575005
-5.7051702 5.441453 68.775002
-5.5505309 5.4374971 68.724998
-5.396111 5.4335408 68.675003
-5.2400012 5.4276071 68.600006
-5.082365 5.4196949 68.500008
-4.9251652 5.4117832 68.400002
-4.768405 5.4038711 68.300003
-4.6086998 5.3920031 68.150002
-4.4512892 5.382113 68.025002
-4.294425 5.3722229 67.900002
-4.1381092 5.3623328 67.775002
-3.9852829 5.3564 67.700005
-3.831368 5.3484869 67.600006
-3.6792541 5.3425541 67.525009
-3.5274689 5.3366189 67.450005
-3.377264 5.3326631 67.400002
-3.228477 5.3306861 67.375008
-3.0809419 5.3306861 67.375008
-2.9355841 5.334641 67.425003
-2.7910409 5.3405752 67.5
-2.6481271 5.3504648 67.625008
-2.5074389 5.3662891 67.825005
-2.365005 5.3801351 68
-2.2209899 5.3920031 68.150002
-2.0747981 5.3999152 68.25
-1.928169 5.4078269 68.350006
-1.78045 5.4137611 68.425003
-1.632403 5.4196949 68.500008
-1.484028 5.4256291 68.574997
-1.335811 5.4335408 68.675003
-1.187155 5.441453 68.775002
-1.038062 5.4493651 68.875
-0.88853103 5.4572759 68.974998
-0.73882902 5.4671669 69.100006
-0.58858001 5.477057 69.224998
-0.43762499 5.4849691 69.325005
-0.28623199 5.4928799 69.425003
-0.13445 5.5027699 69.550003
-5.8664131 5.6020741 68.900002
-5.7051702 5.5919099 68.775002
-5.5505309 5.5878448 68.724998
-5.394146 5.5817471 68.650002
-5.238091 5.5756488 68.574997
-5.0805092 5.5675182 68.474998
-4.9233651 5.5593872 68.375
-4.7631679 5.5471911 68.225006
-4.6036291 5.5349951 68.075005
-4.446382 5.5248318 67.950005
-4.289681 5.514668 67.825005
-4.1365819 5.5085702 67.75
-3.9838109 5.5024719 67.675003
-3.831368 5.4963751 67.600006
-3.6792541 5.4902759 67.525009
-3.5274689 5.4841781 67.450005
-3.377264 5.480113 67.400002
-3.228477 5.4780798 67.375008
-3.0809419 5.4780798 67.375008
-2.934495 5.480113 67.400002
-2.7900071 5.4862108 67.475006
-2.6461689 5.4943409 67.575005
-2.5046661 5.5085702 67.75
-2.361527 5.5207658 67.900002
-2.217731 5.5329618 68.050003
-2.071758 5.5410929 68.150002
-1.926053 5.5512571 68.275002
-1.778499 5.5573549 68.350006
-1.631212 5.565485 68.450005
-1.482946 5.5715842 68.525002
-1.334838 5.5797138 68.625
-1.1862921 5.5878448 68.724998
-1.037685 5.5980091 68.850006
-0.88853103 5.608171 68.974998
-0.73856199 5.616303 69.075005
-0.58836699 5.6264658 69.200005
-0.43746701 5.6345959 69.300003
-0.286129 5.6427269 69.400002
-0.13440201 5.6528912 69.525002
-5.8621559 5.748631 68.850006
-5.707243 5.7444558 68.800003
-5.5505309 5.738194 68.724998
-5.394146 5.7319312 68.650002
-5.2361822 5.7235818 68.550003
-5.0786538 5.7152319 68.450005
-4.919765 5.7047949 68.325005
-4.7596779 5.6922722 68.175003
-4.6002469 5.6797471 68.025002
-4.44311 5.6693101 67.900002
-4.2880998 5.6609612 67.800003
-4.135056 5.6546979 67.725006
-3.9823389 5.648437 67.650002
-3.831368 5.6442618 67.600006
-3.6792541 5.638 67.525009
-3.5287759 5.6338248 67.475006
-3.3785169 5.6296501 67.425003
-3.228477 5.6254749 67.375008
-3.0809419 5.6254749 67.375008
-2.934495 5.627563 67.400002
-2.7889731 5.6317372 67.450005
-2.64519 5.6400871 67.550003
-2.501894 5.6505241 67.675003
-2.3589189 5.6630478 67.825005
-2.215287 5.6755719 67.975006
-2.069478 5.6839218 68.075005
-1.923937 5.6943588 68.200005
-1.777197 5.7027078 68.300003
-1.629424 5.7089701 68.375
-1.481864 5.717319 68.474998
-1.333866 5.7256689 68.574997
-1.185861 5.7361059 68.700005
-1.037308 5.746542 68.824997
-0.887887 5.7548919 68.925003
-0.73829401 5.7653289 69.050003
-0.58815402 5.7757659 69.175003
-0.437309 5.7841158 69.275002
-0.286129 5.7945518 69.400002
-0.134354 5.8029022 69.500008
-5.864285 5.9013939 68.875
-5.707243 5.894968 68.800003
-5.5505309 5.8885412 68.724998
-5.3921828 5.8799729 68.625
-5.234272 5.8714051 68.525002
-5.074944 5.8606939 68.400002
-4.9143648 5.8478422 68.25
-4.7544422 5.83499 68.100006
-4.5951748 5.8221378 67.950005
-4.4398379 5.81357 67.850006
-4.2849379 5.8050008 67.75
-4.1335292 5.8007169 67.700005
-3.9823389 5.796432 67.650002
-3.831368 5.7921491 67.600006
-3.6806171 5.7878642 67.550003
-3.5287759 5.7814379 67.475006
-3.3785169 5.777154 67.425003
-3.2296751 5.775012 67.400002
-3.0809419 5.7728701 67.375008
-2.934495 5.775012 67.400002
-2.7889731 5.7792959 67.450005
-2.64519 5.7878642 67.550003
-2.5009689 5.796432 67.650002
-2.3580489 5.8092852 67.800003
-2.2136581 5.8199959 67.925003
-2.0679581 5.8285642 68.025002
-1.922526 5.8392739 68.150002
-1.775896 5.8478422 68.25
-1.628233 5.854269 68.325005
-1.480782 5.8628368 68.425003
-1.333379 5.8735471 68.550003
-1.184998 5.8821149 68.650002
-1.0365551 5.8928261 68.775002
-0.88756502 5.9035358 68.900002
-0.73802698 5.914247 69.025002
-0.587942 5.9249558 69.150002
-0.43715101 5.9335251 69.250008
-0.286026 5.9442348 69.375
-0.134354 5.954946 69.500008
-6.0194712 6.0564642 68.925003
-5.8621559 6.0498738 68.850006
-5.707243 6.0454798 68.800003
-5.548512 6.0366931 68.700005
-5.3882542 6.0257092 68.574997
-5.2285428 6.0147262 68.450005
-5.0693798 6.0037422 68.325005
-4.9089651 5.990561 68.175003
-4.7492051 5.9773812 68.025002
-4.591794 5.9663968 67.900002
-4.4365659 5.9576101 67.800003
-4.2833571 5.9510188 67.725006
-4.1320028 5.9466262 67.675003
-3.9823389 5.9444289 67.650002
-3.831368 5.9400358 67.600006
-3.6806171 5.9356418 67.550003
-3.5300839 5.9312491 67.5
-3.381022 5.9290519 67.475006
-3.2308731 5.9246578 67.425003
-3.0820849 5.922462 67.400002
-2.9355841 5.9246578 67.425003
-2.7900071 5.9290519 67.475006
-2.64519 5.9356418 67.550003
-2.5009689 5.9444289 67.650002
-2.3571801 5.9554129 67.775002
-2.2128429 5.9663968 67.900002
-2.067198 5.975183 68
-1.921116 5.9839711 68.100006
-1.774595 5.9927578 68.200005
-1.627637 6.001545 68.300003
-1.4802409 6.0103321 68.400002
-1.332407 6.0191188 68.500008
-1.184566 6.0301032 68.625
-1.036178 6.0410872 68.750008
-0.88724297 6.0520701 68.875
-0.73776001 6.0630541 69.000008
-0.58772898 6.074038 69.125
-0.43715101 6.085022 69.250008
-0.286026 6.096005 69.375
-0.134354 6.1069889 69.500008
-6.0194712 6.2072501 68.925003
-5.864285 6.2027459 68.875
-5.7051702 6.1937408 68.775002
-5.5444741 6.1824832 68.650002
-5.384325 6.171226 68.525002
-5.222815 6.1577182 68.375
-5.0619612 6.1442089 68.225006
-4.903564 6.1329522 68.100006
-4.7457142 6.1216941 67.975006
-4.5884128 6.1104369 67.850006
-4.4349298 6.103683 67.775002
-4.2833571 6.0991802 67.725006
-4.1320028 6.094676 67.675003
-3.9823389 6.0924249 67.650002
-3.8327849 6.0901742 67.625008
-3.6819789 6.0856709 67.575005
-3.5326979 6.0834188 67.550003
-3.3822751 6.078917 67.5
-3.2320709 6.0744138 67.450005
-3.084372 6.0744138 67.450005
-2.936672 6.0744138 67.450005
-2.7910409 6.078917 67.5
-2.6461689 6.0856709 67.575005
-2.501894 6.094676 67.675003
-2.3580489 6.1059341 67.800003
-2.2128429 6.1149402 67.900002
-2.067198 6.1239462 68
-1.921116 6.1329522 68.100006
-1.773945 6.1397061 68.175003
-1.627041 6.1487122 68.275002
-1.4797 6.1577182 68.375
-1.33192 6.1667228 68.474998
-1.1837029 6.1757288 68.574997
-1.035424 6.186986 68.700005
-0.88659799 6.1982441 68.824997
-0.737225 6.2095008 68.950005
-0.587304 6.220758 69.075005
-0.43699399 6.2342672 69.224998
-0.285923 6.2455239 69.350006
-0.134354 6.2590332 69.500008
-6.0194712 6.358036 68.925003
-5.864285 6.3534231 68.875
-5.7030959 6.3418918 68.750008
-5.5404348 6.3280559 68.600006
-5.3784318 6.314219 68.450005
-5.2170849 6.3003821 68.300003
-5.0582509 6.2888522 68.175003
-4.8981638 6.2750139 68.025002
-4.7422242 6.26579 67.925003
-4.5867219 6.256566 67.825005
-4.4332938 6.2496471 67.75
-4.281775 6.2450352 67.700005
-4.1320028 6.2427282 67.675003
-3.9823389 6.2404218 67.650002
-3.8327849 6.2381158 67.625008
-3.683341 6.2358098 67.600006
-3.5340061 6.2335038 67.575005
-3.3847799 6.2311978 67.550003
-3.2356651 6.2288918 67.525009
-3.086658 6.2265849 67.5
-2.9399381 6.2288918 67.525009
-2.793108 6.2311978 67.550003
-2.6481271 6.2381158 67.625008
-2.503742 6.2473412 67.725006
-2.3589189 6.256566 67.825005
-2.2136581 6.26579 67.925003
-2.067198 6.2727079 68
-1.921116 6.2819328 68.100006
-1.773945 6.2888522 68.175003
-1.627041 6.2980762 68.275002
-1.479159 6.3049941 68.350006
-1.331434 6.314219 68.450005
-1.183272 6.3234429 68.550003
-1.035048 6.3349748 68.675003
-0.88627601 6.3465042 68.800003
-0.73695803 6.358036 68.925003
-0.58709198 6.369566 69.050003
-0.43667799 6.3810968 69.175003
-0.28582001 6.3949342 69.325005
-0.134305 6.408771 69.474998
-6.177114 6.5159039 69.000008
-6.0194712 6.508821 68.925003
-5.8621559 6.501739 68.850006
-5.7010221 6.489934 68.724998
-5.536397 6.4734092 68.550003
-5.3745031 6.4592438 68.400002
-5.2132659 6.4450779 68.25
-5.0545411 6.4332752 68.125
-4.8963628 6.4214702 68
-4.740478 6.4120269 67.900002
-4.585032 6.4025841 67.800003
-4.4316578 6.3955011 67.725006
-4.2801938 6.390779 67.675003
-4.130476 6.3884182 67.650002
-3.9823389 6.3884182 67.650002
-3.8327849 6.3860579 67.625008
-3.6847031 6.3860579 67.625008
-3.5366211 6.3860579 67.625008
-3.3872859 6.383697 67.600006
-3.23806 6.3813362 67.575005
-3.0900879 6.3813362 67.575005
-2.943203 6.383697 67.600006
-2.7962091 6.3860579 67.625008
-2.6510639 6.3931408 67.700005
-2.50559 6.4002228 67.775002
-2.3606579 6.4096661 67.875
-2.2144721 6.416749 67.950005
-2.0679581 6.423831 68.025002
-1.921821 6.4332752 68.125
-1.774595 6.4403572 68.200005
-1.627041 6.4474401 68.275002
-1.479159 6.4545221 68.350006
-1.331434 6.4639649 68.450005
-1.183272 6.4734092 68.550003
-1.0346709 6.482852 68.650002
-0.88595402 6.4946561 68.775002
-0.73668998 6.5064602 68.900002
-0.58687901 6.5182648 69.025002
-0.43652001 6.5300689 69.150002
-0.28571701 6.5442338 69.300003
-0.134257 6.5583992 69.450005
-6.177114 6.666853 69.000008
-6.0194712 6.6596069 68.925003
-5.8621559 6.65236 68.850006
-5.6968751 6.6354518 68.675003
-5.5323591 6.6185431 68.500008
-5.370575 6.6040502 68.350006
-5.2113571 6.5919719 68.225006
-5.0526872 6.579895 68.100006
-4.8945632 6.5678158 67.975006
-4.7387328 6.5581551 67.875
-4.5833411 6.548492 67.775002
-4.4316578 6.5436621 67.725006
-4.2801938 6.5388298 67.675003
-4.130476 6.5364151 67.650002
-3.9808681 6.5339999 67.625008
-3.8342021 6.5364151 67.650002
-3.686065 6.5364151 67.650002
-3.5379281 6.5364151 67.650002
-3.389791 6.5364151 67.650002
-3.2416539 6.5364151 67.650002
-3.0935171 6.5364151 67.650002
-2.9464681 6.5388298 67.675003
-2.800344 6.5436621 67.725006
-2.654001 6.548492 67.775002
-2.5074389 6.5533242 67.825005
-2.362397 6.5629859 67.925003
-2.2161019 6.5702319 68
-2.069478 6.5774779 68.075005
-1.922526 6.5847249 68.150002
-1.775246 6.5919719 68.225006
-1.627637 6.5992179 68.300003
-1.4797 6.6064649 68.375
-1.331434 6.6137118 68.450005
-1.183272 6.623374 68.550003
-1.0346709 6.6330361 68.650002
-0.88563198 6.6426978 68.750008
-0.73642302 6.6547761 68.875
-0.586667 6.666853 69.000008
-0.436362 6.6789312 69.125
-0.28551099 6.691009 69.250008
-0.13416 6.705502 69.400002
-6.1748748 6.8153329 68.974998
-6.0194712 6.8103929 68.925003
-5.8600268 6.8005109 68.824997
-5.6947999 6.7832198 68.650002
-5.5303402 6.7659292 68.474998
-5.370575 6.7535782 68.350006
-5.2113571 6.7412271 68.225006
-5.0526872 6.7288761 68.100006
-4.8945632 6.7165251 67.975006
-4.7387328 6.7066441 67.875
-4.5833411 6.696763 67.775002
-4.4300218 6.689353 67.700005
-4.2786131 6.684412 67.650002
-4.1289501 6.681942 67.625008
-3.9808681 6.681942 67.625008
-3.8342021 6.684412 67.650002
-3.686065 6.684412 67.650002
-3.5392361 6.686882 67.675003
-3.392297 6.689353 67.700005
-3.24405 6.689353 67.700005
-3.096947 6.691823 67.725006
-2.949734 6.6942921 67.75
-2.8034451 6.6992331 67.800003
-2.6559589 6.701704 67.825005
-2.510211 6.7091141 67.900002
-2.364136 6.7165251 67.975006
-2.217731 6.7239351 68.050003
-2.070998 6.7313461 68.125
-1.923232 6.7362871 68.175003
-1.775896 6.7436972 68.25
-1.627637 6.7486382 68.300003
-1.4797 6.7560482 68.375
-1.331434 6.7634592 68.450005
-1.183272 6.7733402 68.550003
-1.034294 6.7807498 68.625
-0.88563198 6.7931018 68.750008
-0.73615599 6.8029819 68.850006
-0.58645397 6.8153329 68.974998
-0.43604699 6.8252139 69.075005
-0.28530499 6.8375649 69.200005
-0.134064 6.852387 69.350006
-6.1748748 6.966228 68.974998
-6.0172868 6.9586539 68.900002
-5.8557701 6.9460301 68.775002
-5.6927261 6.9308801 68.625
-5.5303402 6.91573 68.474998
-5.370575 6.9031062 68.350006
-5.2113571 6.890481 68.225006
-5.0526872 6.8778572 68.100006
-4.8945632 6.865232 67.975006
-4.7387328 6.8551331 67.875
-4.5833411 6.8450332 67.775002
-4.4300218 6.8374581 67.700005
-4.2786131 6.832408 67.650002
-4.1289501 6.8298831 67.625008
-3.9808681 6.8298831 67.625008
-3.8327849 6.8298831 67.625008
-3.687427 6.8349319 67.675003
-3.5405431 6.8374581 67.700005
-3.393549 6.839983 67.725006
-3.2464459 6.8425069 67.75
-3.0992329 6.8450332 67.775002
-2.951911 6.847558 67.800003
-2.8055129 6.8526068 67.850006
-2.658896 6.857657 67.900002
-2.5120599 6.8627081 67.950005
-2.365875 6.8702822 68.025002
-2.2185459 6.8753319 68.075005
-2.071758 6.882906 68.150002
-1.924642 6.890481 68.225006
-1.776547 6.8955312 68.275002
-1.628829 6.9031062 68.350006
-1.4802409 6.908155 68.400002
-1.33192 6.91573 68.474998
-1.183272 6.923305 68.550003
-1.034294 6.9308801 68.625
-0.88530999 6.940979 68.724998
-0.73615599 6.9536042 68.850006
-0.58624101 6.9637041 68.950005
-0.43588901 6.973803 69.050003
-0.285202 6.9864278 69.175003
-0.133967 6.999053 69.300003
-6.1748748 7.1171231 68.974998
-6.0172868 7.1093841 68.900002
-5.8557701 7.096487 68.775002
-5.6947999 7.0835881 68.650002
-5.5323591 7.0681109 68.500008
-5.372539 7.055213 68.375
-5.2132659 7.042315 68.25
-5.0545411 7.029417 68.125
-4.8963628 7.0165191 68
-4.7387328 7.0036211 67.875
-4.5833411 6.9933028 67.775002
-4.4300218 6.9855642 67.700005
-4.2770319 6.9778252 67.625008
-4.1274238 6.975245 67.600006
-3.9793961 6.975245 67.600006
-3.8327849 6.9778252 67.625008
-3.687427 6.9829841 67.675003
-3.5405431 6.9855642 67.700005
-3.3948021 6.9907231 67.75
-3.2476439 6.9933028 67.775002
-3.1003771 6.995882 67.800003
-2.954088 7.0010409 67.850006
-2.8065469 7.0036211 67.875
-2.6598749 7.00878 67.925003
-2.512984 7.0139389 67.975006
-2.366744 7.021678 68.050003
-2.220176 7.029417 68.125
-2.073278 7.0371561 68.200005
-1.925347 7.042315 68.25
-1.777848 7.0500541 68.325005
-1.629424 7.055213 68.375
-1.480782 7.0603719 68.425003
-1.33192 7.0655308 68.474998
-1.183272 7.0732698 68.550003
-1.0346709 7.0835881 68.650002
-0.88530999 7.0913272 68.724998
-0.73615599 7.1042261 68.850006
-0.58624101 7.1145439 68.950005
-0.43588901 7.1248622 69.050003
-0.285099 7.13518 69.150002
-0.13387001 7.1454992 69.250008
-6.3327932 7.2759218 69.050003
-6.1748748 7.2680192 68.974998
-6.0172868 7.2601161 68.900002
-5.8557701 7.246944 68.775002
-5.6947999 7.2337732 68.650002
-5.5343781 7.220602 68.525002
-5.3745031 7.2074299 68.400002
-5.2151761 7.1942592 68.275002
-5.056396 7.181087 68.150002
-4.8981638 7.1679158 68.025002
-4.740478 7.1547441 67.900002
-4.585032 7.144207 67.800003
-4.4300218 7.1336699 67.700005
-4.2786131 7.1284008 67.650002
-4.1274238 7.1231332 67.600006
-3.9793961 7.1231332 67.600006
-3.8327849 7.1257672 67.625008
-3.687427 7.1310358 67.675003
-3.5405431 7.1336699 67.700005
-3.3948021 7.138938 67.75
-3.248842 7.144207 67.800003
-3.1015201 7.146841 67.825005
-2.9551761 7.1521101 67.875
-2.80758 7.1547441 67.900002
-2.6608541 7.1600132 67.950005
-2.5139079 7.1652808 68
-2.367614 7.1731839 68.075005
-2.2209899 7.181087 68.150002
-2.074038 7.1889901 68.225006
-1.926053 7.1942592 68.275002
-1.778499 7.2021618 68.350006
-1.63002 7.2074299 68.400002
-1.481323 7.212698 68.450005
-1.332407 7.217968 68.500008
-1.183272 7.2232361 68.550003
-1.0346709 7.2337732 68.650002
-0.88530999 7.2416759 68.724998
-0.735888 7.252213 68.824997
-0.58602899 7.2627511 68.925003
-0.43573099 7.2732868 69.025002
-0.28489199 7.2811899 69.100006
-0.133774 7.291728 69.200005
-6.337379 7.4323592 69.100006
-6.1793518 7.4242921 69.025002
-6.0194712 7.4135361 68.925003
-5.8578992 7.4000912 68.800003
-5.6947999 7.3839569 68.650002
-5.5343781 7.370512 68.525002
-5.3764682 7.359756 68.425003
-5.2170849 7.3463111 68.300003
-5.0601058 7.335556 68.200005
-4.901763 7.3221102 68.075005
-4.743969 7.3086662 67.950005
-4.5867219 7.2952199 67.825005
-4.4316578 7.2844648 67.725006
-4.2786131 7.2763972 67.650002
-4.1289501 7.2737088 67.625008
-3.9793961 7.2710199 67.600006
-3.8327849 7.2737088 67.625008
-3.687427 7.2790861 67.675003
-3.541851 7.2844648 67.725006
-3.3948021 7.2871542 67.75
-3.248842 7.292531 67.800003
-3.102663 7.2979102 67.850006
-2.9551761 7.3005991 67.875
-2.808614 7.3059769 67.925003
-2.6608541 7.3086662 67.950005
-2.514833 7.3167319 68.025002
-2.3684831 7.3248 68.100006
-2.2218051 7.3328671 68.175003
-2.0747981 7.3409328 68.25
-1.9267581 7.3463111 68.300003
-1.7791491 7.3543782 68.375
-1.6306159 7.359756 68.425003
-1.481323 7.3624449 68.450005
-1.332893 7.370512 68.525002
-1.1837029 7.3758898 68.574997
-1.0346709 7.3839569 68.650002
-0.88530999 7.392024 68.724998
-0.735888 7.4027801 68.824997
-0.58602899 7.4135361 68.925003
-0.43557301 7.4216032 69.000008
-0.284789 7.4296699 69.075005
-0.133725 7.4404259 69.175003
-6.5027771 7.5999889 69.250008
-6.3442569 7.5917592 69.175003
-6.1838279 7.5807838 69.075005
-6.0216541 7.5670648 68.950005
-5.8578992 7.5506029 68.800003
-5.6968751 7.5368848 68.675003
-5.536397 7.5231662 68.550003
-5.3784318 7.5121918 68.450005
-5.2209048 7.5012169 68.350006
-5.0619612 7.4874978 68.225006
-4.905364 7.4765239 68.125
-4.7457142 7.460062 67.975006
-4.5884128 7.4463429 67.850006
-4.4332938 7.435369 67.75
-4.2801938 7.4271369 67.675003
-4.1289501 7.4216509 67.625008
-3.9808681 7.4216509 67.625008
-3.8342021 7.4243941 67.650002
-3.687427 7.4271369 67.675003
-3.541851 7.4326248 67.725006
-3.396055 7.4381132 67.775002
-3.2500401 7.4435992 67.825005
-3.103806 7.4490881 67.875
-2.956265 7.4518309 67.900002
-2.808614 7.4545751 67.925003
-2.661833 7.460062 67.975006
-2.514833 7.465549 68.025002
-2.3684831 7.4737802 68.100006
-2.2218051 7.4820118 68.175003
-2.0755579 7.4929862 68.275002
-1.928169 7.5012169 68.350006
-1.7798001 7.5067039 68.400002
-1.631212 7.5121918 68.450005
-1.4824049 7.5176792 68.500008
-1.332893 7.5204229 68.525002
-1.184135 7.5286541 68.600006
-1.0346709 7.5341411 68.650002
-0.88563198 7.5451159 68.750008
-0.735888 7.5533471 68.824997
-0.58581603 7.5615778 68.900002
-0.435415 7.569808 68.974998
-0.284686 7.5780401 69.050003
-0.13362899 7.5862699 69.125
-6.509819 7.759882 69.325005
-6.3511362 7.7514858 69.250008
-6.19278 7.7430911 69.175003
-6.026021 7.7235031 69.000008
-5.8600268 7.7039142 68.824997
-5.6989479 7.6899209 68.700005
-5.5404348 7.6787291 68.600006
-5.3803959 7.6647358 68.474998
-5.222815 7.653543 68.375
-5.06567 7.6423502 68.275002
-4.9089651 7.631156 68.175003
-4.7509508 7.6171651 68.050003
-4.5934849 7.6031728 67.925003
-4.4365659 7.5891809 67.800003
-4.2833571 7.5807848 67.725006
-4.1320028 7.5751891 67.675003
-3.9823389 7.5723901 67.650002
-3.8342021 7.5723901 67.650002
-3.6887901 7.5779872 67.700005
-3.5431581 7.5835838 67.75
-3.3973081 7.5891809 67.800003
-3.2512381 7.5947781 67.850006
-3.104949 7.6003742 67.900002
-2.9573531 7.6031728 67.925003
-2.809648 7.6059709 67.950005
-2.662812 7.611567 68
-2.5157571 7.6171651 68.050003
-2.3693531 7.6255598 68.125
-2.22262 7.633954 68.200005
-2.076318 7.6451478 68.300003
-1.928874 7.653543 68.375
-1.78045 7.6591401 68.425003
-1.631808 7.6647358 68.474998
-1.482946 7.6703329 68.525002
-1.333379 7.673131 68.550003
-1.184135 7.6787291 68.600006
-1.035048 7.6871238 68.675003
-0.88563198 7.695519 68.750008
-0.73562098 7.7011151 68.800003
-0.58560401 7.7095108 68.875
-0.435258 7.717906 68.950005
-0.284583 7.7263012 69.025002
-0.13358 7.7346959 69.100006
-6.516861 7.9201012 69.400002
-6.355721 7.908689 69.300003
-6.1994948 7.9029841 69.250008
-6.0325708 7.8830118 69.075005
-5.864285 7.860188 68.875
-5.7030959 7.845922 68.750008
-5.5424552 7.8316569 68.625
-5.3823609 7.8173909 68.500008
-5.226634 7.8088322 68.425003
-5.0693798 7.7974191 68.325005
-4.9125652 7.7860069 68.225006
-4.7544422 7.7717419 68.100006
-4.5968661 7.7574768 67.975006
-4.441473 7.7460651 67.875
-4.2865191 7.734653 67.775002
-4.1335292 7.7260928 67.700005
-3.9838109 7.7232399 67.675003
-3.8370359 7.7260928 67.700005
-3.6901519 7.7289462 67.725006
-3.544466 7.734653 67.775002
-3.3998129 7.7432122 67.850006
-3.253634 7.7489181 67.900002
-3.1072359 7.7546239 67.950005
-2.9595301 7.7574768 67.975006
-2.8117149 7.7603302 68
-2.6647699 7.766036 68.050003
-2.517606 7.7717419 68.100006
-2.3710921 7.780302 68.175003
-2.2242489 7.7888598 68.25
-2.0778379 7.8002729 68.350006
-1.930284 7.8088322 68.425003
-1.781751 7.814538 68.474998
-1.632403 7.8173909 68.500008
-1.483487 7.8230972 68.550003
-1.333866 7.8259511 68.574997
-1.184566 7.8316569 68.625
-1.035048 7.8373628 68.675003
-0.88563198 7.845922 68.750008
-0.73562098 7.8516278 68.800003
-0.58560401 7.860188 68.875
-0.435258 7.8687472 68.950005
-0.284583 7.877306 69.025002
-0.13358 7.8858652 69.100006
-6.5215559 8.0777416 69.450005
-6.3603072 8.0661106 69.350006
-6.2017331 8.0573883 69.275002
-6.0347538 8.037034 69.100006
-5.8685422 8.0166798 68.925003
-5.707243 8.00214 68.800003
-5.5444741 7.984694 68.650002
-5.3862891 7.973062 68.550003
-5.2285428 7.961432 68.450005
-5.0712352 7.949801 68.350006
-4.9161649 7.9410782 68.275002
-4.7596779 7.9294472 68.175003
-4.6019378 7.914907 68.050003
-4.446382 7.903276 67.950005
-4.289681 7.8887372 67.825005
-4.1381092 7.8829222 67.775002
-3.9867539 7.8771071 67.725006
-3.83987 7.8800139 67.75
-3.6928761 7.8829222 67.775002
-3.54708 7.8887372 67.825005
-3.402318 7.8974609 67.900002
-3.2560301 7.903276 67.950005
-3.1095221 7.909091 68
-2.9617071 7.9120002 68.025002
-2.8137829 7.914907 68.050003
-2.666728 7.920723 68.100006
-2.519454 7.926538 68.150002
-2.3728311 7.9352622 68.225006
-2.225879 7.943985 68.300003
-2.078598 7.9527092 68.375
-1.93099 7.961432 68.450005
-1.782402 7.967248 68.500008
-1.633595 7.973062 68.550003
-1.484028 7.9759698 68.574997
-1.334352 7.978878 68.600006
-1.184998 7.984694 68.650002
-1.035424 7.990509 68.700005
-0.88563198 7.996325 68.750008
-0.73562098 8.00214 68.800003
-0.58560401 8.0108633 68.875
-0.43509999 8.0166798 68.925003
-0.28448001 8.025403 69.000008
-0.133532 8.0341253 69.075005
-6.545033 8.2593002 69.700005
-6.3625998 8.220789 69.375
-6.2017331 8.2089386 69.275002
-6.0369372 8.191164 69.125
-5.874928 8.1763535 69.000008
-5.711391 8.158577 68.850006
-5.548512 8.1408024 68.700005
-5.3902178 8.128953 68.600006
-5.2323632 8.1171036 68.500008
-5.074944 8.1052523 68.400002
-4.919765 8.0963659 68.325005
-4.7631679 8.0845165 68.225006
-4.6070099 8.0726662 68.125
-4.4512892 8.0608168 68.025002
-4.294425 8.0460043 67.900002
-4.141161 8.0371161 67.825005
-3.991169 8.0341549 67.800003
-3.8427041 8.0341549 67.800003
-3.6969631 8.0400791 67.850006
-3.551003 8.0460043 67.900002
-3.406076 8.0548916 67.975006
-3.259624 8.0608168 68.025002
-3.112952 8.066741 68.075005
-2.964972 8.0697041 68.100006
-2.816884 8.0726662 68.125
-2.6696651 8.0785913 68.175003
-2.522227 8.0845165 68.225006
-2.3745689 8.0904408 68.275002
-2.2275081 8.099329 68.350006
-2.0801179 8.1082153 68.425003
-1.931695 8.1141415 68.474998
-1.783052 8.1200657 68.525002
-1.633595 8.1230278 68.550003
-1.484569 8.128953 68.600006
-1.334838 8.1319151 68.625
-1.184998 8.1348782 68.650002
-1.035424 8.1408024 68.700005
-0.88563198 8.1467276 68.750008
-0.73562098 8.1526527 68.800003
-0.58539099 8.158577 68.850006
-0.43509999 8.1674652 68.925003
-0.28448001 8.1763535 69.000008
-0.13358 8.1882019 69.100006
-6.3717709 8.3846283 69.474998
-6.2017331 8.3604908 69.275002
-6.0391202 8.3454046 69.150002
-5.8770561 8.3303194 69.025002
-5.715539 8.3152332 68.900002
-5.5545688 8.300148 68.775002
-5.394146 8.2850618 68.650002
-5.2361822 8.2729931 68.550003
-5.0805092 8.2639418 68.474998
-4.9233651 8.251873 68.375
-4.768405 8.2428226 68.300003
-4.612082 8.2307539 68.200005
-4.4561968 8.2186852 68.100006
-4.3007488 8.2066164 68
-4.1472669 8.1975651 67.925003
-3.995584 8.1915312 67.875
-3.848371 8.1945477 67.900002
-3.70105 8.1975651 67.925003
-3.554925 8.2035999 67.975006
-3.4098339 8.2126503 68.050003
-3.2632179 8.2186852 68.100006
-3.1163809 8.224719 68.150002
-2.9682381 8.2277374 68.175003
-2.8199849 8.2307539 68.200005
-2.671623 8.2337704 68.225006
-2.524075 8.2398052 68.275002
-2.377178 8.2488565 68.350006
-2.2291369 8.2548904 68.400002
-2.080878 8.2609253 68.450005
-1.9324 8.2669601 68.500008
-1.783702 8.2729931 68.550003
-1.634191 8.2760115 68.574997
-1.484569 8.2790279 68.600006
-1.334838 8.2820454 68.625
-1.184998 8.2850618 68.650002
-1.035424 8.2910967 68.700005
-0.88563198 8.2971315 68.750008
-0.73562098 8.3031635 68.800003
-0.58560401 8.3122168 68.875
-0.43509999 8.3182507 68.925003
-0.284583 8.3303194 69.025002
-0.13358 8.3393707 69.100006
-6.3901138 8.5611916 69.675003
-6.2017331 8.512042 69.275002
-6.0413041 8.4997549 69.175003
-5.8813138 8.4874678 69.075005
-5.719687 8.4721079 68.950005
-5.5586081 8.456749 68.824997
-5.4000401 8.4444609 68.724998
-5.2400012 8.4291029 68.600006
-5.084219 8.4198866 68.525002
-4.9287658 8.4106712 68.450005
-4.7736411 8.4014568 68.375
-4.6171541 8.3891687 68.275002
-4.4627399 8.3799534 68.200005
-4.3070741 8.3676662 68.100006
-4.1533728 8.3584509 68.025002
-4.002943 8.3553782 68
-3.854039 8.3553782 68
-3.7064979 8.3584509 68.025002
-3.560154 8.3645945 68.075005
-3.4135931 8.370738 68.125
-3.2668109 8.3768816 68.175003
-3.1198111 8.3830252 68.225006
-2.971503 8.386096 68.25
-2.823086 8.3891687 68.275002
-2.6745601 8.3922405 68.300003
-2.5268481 8.398385 68.350006
-2.378917 8.4045277 68.400002
-2.2299521 8.4076004 68.425003
-2.0816381 8.413743 68.474998
-1.933105 8.4198866 68.525002
-1.783702 8.4229584 68.550003
-1.634191 8.4260311 68.574997
-1.484569 8.4291029 68.600006
-1.334838 8.4321747 68.625
-1.184998 8.4352465 68.650002
-1.035424 8.44139 68.700005
-0.88563198 8.4475336 68.750008
-0.73562098 8.4536772 68.800003
-0.58560401 8.4628925 68.875
-0.435258 8.4721079 68.950005
-0.284583 8.4813232 69.025002
