ply
format ascii 1.0
comment PCL generated
element vertex 1615
property float x
property float y
property float z
element face 0
element camera 0
property float view_px
property float view_py
property float view_pz
property float x_axisx
property float x_axisy
property float x_axisz
property float y_axisx
property float y_axisy
property float y_axisz
property float z_axisx
property float z_axisy
property float z_axisz
property float focal
property float scalex
property float scaley
property float centerx
property float centery
property int viewportx
property int viewporty
property float k1
property float k2
end_header
0.016628001 6.8280911 64.800003
0.15821899 6.8149199 64.675003
0.29937801 6.8043842 64.575005
0.440099 6.7938461 64.475006
0.58038199 6.783309 64.375
0.72050703 6.7754049 64.300003
0.85996902 6.7648692 64.200005
0.99899203 6.7543311 64.100006
1.137578 6.743794 64.000008
1.276225 6.7358918 63.925003
1.4134361 6.7227201 63.800003
1.5501 6.709549 63.675003
1.687542 6.7016459 63.600002
1.825375 6.6963768 63.550003
1.964534 6.6963768 63.550003
2.103693 6.6963768 63.550003
2.247263 6.709549 63.675003
2.429801 6.8307261 64.825005
2.5786951 6.8491659 65
2.725215 6.859704 65.100006
2.8721731 6.8702402 65.200005
3.0161009 6.8728752 65.225006
3.1601391 6.8755088 65.25
3.301755 6.8728752 65.225006
3.441941 6.8676062 65.175003
3.5832839 6.8649721 65.150002
3.7230871 6.859704 65.100006
3.8656399 6.859704 65.100006
4.008193 6.859704 65.100006
4.1523399 6.8623371 65.125
4.296597 6.8649721 65.150002
4.4426661 6.8702402 65.200005
4.588954 6.8755088 65.25
4.7372761 6.8834119 65.325005
4.8877921 6.893949 65.425003
5.0349021 6.8992181 65.475006
5.18223 6.9044862 65.525002
5.3277459 6.9071212 65.550003
5.4754581 6.9123888 65.599998
5.6212468 6.9150238 65.625008
5.7693419 6.9202919 65.675003
5.9176559 6.92556 65.725006
6.0661888 6.930829 65.775002
6.214942 6.9360981 65.825005
6.3639131 6.9413671 65.875008
6.513103 6.9466338 65.925003
6.6675611 6.9571719 66.025002
6.830195 6.9756131 66.200005
7.0041318 7.00459 66.475006
7.1900291 7.0441041 66.849998
7.3830562 7.0888872 67.275009
7.6367092 7.1889901 68.225006
7.823195 7.2232361 68.550003
7.9733028 7.2232361 68.550003
8.1234112 7.2232361 68.550003
8.2735186 7.2232361 68.550003
8.4236259 7.2232361 68.550003
8.5768614 7.2258701 68.574997
8.733387 7.2311392 68.625
8.8998404 7.2443099 68.750008
9.1326618 7.3101678 69.375
9.4485197 7.4392481 70.600006
10.017982 7.760632 73.650002
10.414218 7.939764 75.350006
10.593256 7.9503021 75.450005
-7.373106 7.2602639 67.5
-7.225296 7.2602639 67.5
-7.0801101 7.2629528 67.525009
-6.934813 7.2656422 67.550003
-6.7868962 7.2656422 67.550003
-6.6389771 7.2656422 67.550003
-6.4862542 7.2602639 67.5
-6.3337512 7.2548862 67.450005
-6.179173 7.246819 67.375008
-6.0249238 7.2387509 67.300003
-5.8731871 7.2333741 67.25
-5.7216692 7.2279959 67.200005
-5.5745168 7.2279959 67.200005
-5.4273648 7.2279959 67.200005
-5.2821779 7.2306852 67.225006
-5.138792 7.236063 67.275009
-4.9914761 7.236063 67.275009
-4.8423591 7.2333741 67.25
-4.691607 7.2279959 67.200005
-4.5393839 7.2199292 67.125008
-4.3874888 7.2118621 67.050003
-4.2343411 7.2011061 66.950005
-4.083158 7.1930389 66.875008
-3.933774 7.1876612 66.825005
-3.78461 7.1822839 66.775009
-3.6356649 7.1769052 66.725006
-3.485631 7.168839 66.650002
-3.3359261 7.1607709 66.575005
-3.186548 7.1527038 66.5
-3.0386441 7.147326 66.450005
-2.889869 7.1392589 66.375008
-2.7414219 7.1311932 66.300003
-2.5933051 7.123126 66.225006
-2.4455149 7.1150579 66.150002
-2.2980549 7.1069918 66.075005
-2.1509221 7.0989242 66
-2.004118 7.090858 65.925003
-1.858348 7.0854802 65.875008
-1.712797 7.080102 65.825005
-1.568061 7.0774131 65.800003
-1.4234329 7.0747228 65.775002
-1.278916 7.0720339 65.75
-1.134076 7.0666571 65.699997
-0.989079 7.0585899 65.625008
-0.84408802 7.047833 65.525002
-0.699 7.0316992 65.375
-0.55478197 7.0182552 65.25
-0.41126999 7.0074992 65.150002
-0.268298 6.9994321 65.075005
-0.125654 6.991365 65
0.016661 6.9832978 64.925003
0.158586 6.9725418 64.825005
0.300073 6.9617872 64.725006
0.44146401 6.956408 64.675003
0.58240998 6.9483409 64.600006
0.72330803 6.9429631 64.550003
0.86398703 6.9375858 64.500008
1.0122401 6.9859872 64.950005
1.155353 6.991365 65
1.2976871 6.991365 65
1.4389139 6.9859872 64.950005
1.56288 6.9053168 64.200005
1.688869 6.8461599 63.650002
1.826811 6.8407822 63.600002
1.966079 6.8407822 63.600002
2.145071 6.9698529 64.800003
2.289614 6.9779201 64.875
2.4344859 6.9859872 64.950005
2.58167 6.9994321 65.075005
2.728354 7.0101881 65.175003
2.8743761 7.0182552 65.25
3.0195689 7.023633 65.300003
3.1637709 7.0263219 65.325005
3.305552 7.023633 65.300003
3.4485431 7.023633 65.300003
3.5901589 7.0209441 65.275002
3.7316649 7.0182552 65.25
3.8730631 7.0155659 65.225006
4.0174279 7.0182552 65.25
4.1603098 7.0182552 65.25
4.306489 7.023633 65.300003
4.4528871 7.0290108 65.349998
4.6012621 7.0370779 65.425003
4.7481532 7.0424562 65.475006
4.89713 7.0505228 65.550003
5.0445142 7.0559001 65.599998
5.1901388 7.0585899 65.625008
5.3358741 7.0612788 65.650002
5.4838042 7.0666571 65.699997
5.6298132 7.069345 65.725006
5.7781272 7.0747228 65.775002
5.9266601 7.080102 65.825005
6.0754118 7.0854802 65.875008
6.2243829 7.090858 65.925003
6.3735728 7.0962348 65.975006
6.5254531 7.1043029 66.050003
6.687758 7.123126 66.225006
6.9024181 7.1957278 66.900002
7.0963268 7.2441301 67.350006
7.2922068 7.292531 67.800003
7.5284681 7.3785801 68.600006
7.6842809 7.3839569 68.650002
7.8346071 7.3839569 68.650002
7.9820271 7.381268 68.625
8.1322994 7.381268 68.625
8.2825708 7.381268 68.625
8.4328432 7.381268 68.625
8.5862417 7.3839569 68.650002
8.7429314 7.3893352 68.700005
8.9354401 7.4242921 69.025002
9.162281 7.4861379 69.600006
9.6191559 7.7308359 71.875008
10.014582 7.919065 73.625008
10.410764 8.1019173 75.325005
10.635377 8.1476297 75.750008
-7.233325 7.416162 67.575005
-7.0853519 7.416162 67.575005
-6.9373789 7.416162 67.575005
-6.7894068 7.416162 67.575005
-6.6389771 7.4134188 67.550003
-6.4862542 7.4079318 67.5
-6.3337512 7.4024448 67.450005
-6.179173 7.3942142 67.375008
-6.0271621 7.3887262 67.325005
-5.875371 7.3832388 67.275009
-5.725925 7.3804951 67.25
-5.576591 7.3777509 67.225006
-5.4314032 7.3804951 67.25
-5.2861071 7.3832388 67.275009
-5.1406999 7.385983 67.300003
-4.99333 7.385983 67.300003
-4.8423591 7.3804951 67.25
-4.691607 7.3750081 67.200005
-4.5393839 7.3667769 67.125008
-4.3858528 7.355803 67.025009
-4.2343411 7.3475709 66.950005
-4.083158 7.3393402 66.875008
-3.933774 7.3338518 66.825005
-3.7831931 7.3256221 66.75
-3.6343019 7.3201342 66.700005
-3.485631 7.3146472 66.650002
-3.3359261 7.306416 66.575005
-3.186548 7.2981849 66.5
-3.0386441 7.292697 66.450005
-2.889869 7.2844672 66.375008
-2.7414219 7.2762361 66.300003
-2.5933051 7.2680039 66.225006
-2.4455149 7.2597728 66.150002
-2.2980549 7.2515421 66.075005
-2.1509221 7.2433109 66
-2.004118 7.2350798 65.925003
-1.858348 7.2295928 65.875008
-1.713447 7.2268491 65.849998
-1.568656 7.2241049 65.825005
-1.423975 7.2213621 65.800003
-1.279402 7.2186179 65.775002
-1.134939 7.2158751 65.75
-0.989833 7.207643 65.675003
-0.84441 7.1939249 65.550003
-0.69926798 7.1774631 65.400002
-0.554995 7.163744 65.275002
-0.411585 7.1555128 65.200005
-0.26860699 7.1500258 65.150002
-0.125848 7.1445379 65.100006
0.016686 7.1363082 65.025002
0.15889201 7.1280761 64.950005
0.30088401 7.1225901 64.900002
0.44248801 7.1143579 64.825005
0.58398801 7.108871 64.775002
0.72639 7.1143579 64.825005
0.87068498 7.133564 65
1.0141881 7.1417952 65.075005
1.1566859 7.1417952 65.075005
1.298685 7.1390519 65.050003
1.440021 7.133564 65
1.581138 7.1280761 64.950005
1.722036 7.1225901 64.900002
1.862715 7.1171021 64.850006
2.0054941 7.1198449 64.875
2.1483819 7.1225901 64.900002
2.2922609 7.1280761 64.950005
2.438235 7.1390519 65.050003
2.5856371 7.15277 65.175003
2.7325411 7.163744 65.275002
2.8787811 7.1719751 65.349998
3.0253489 7.1802058 65.425003
3.1698251 7.18295 65.449997
3.3131449 7.18295 65.449997
3.4551439 7.1802058 65.425003
3.597034 7.1774631 65.400002
3.7388141 7.1747189 65.375
3.881969 7.1747189 65.375
4.025125 7.1747189 65.375
4.1682801 7.1747189 65.375
4.314733 7.1802058 65.425003
4.4614038 7.1856942 65.475006
4.610054 7.1939249 65.550003
4.7608442 7.2048998 65.650002
4.9083371 7.2103872 65.699997
5.0560479 7.2158751 65.75
5.202002 7.2186179 65.775002
5.3480649 7.2213621 65.800003
5.4942379 7.2241049 65.825005
5.642662 7.2295928 65.875008
5.7913041 7.2350798 65.925003
5.9379139 7.237823 65.949997
6.0869398 7.2433109 66
6.2338238 7.2460551 66.025002
6.3856478 7.2542849 66.099998
6.5452108 7.2707481 66.25
6.8089399 7.3997011 67.425003
6.9901161 7.435369 67.75
7.1832528 7.4820118 68.175003
7.3836269 7.5341411 68.650002
7.5394421 7.539629 68.700005
7.689878 7.539629 68.700005
7.8403139 7.539629 68.700005
7.9907508 7.539629 68.700005
8.1382246 7.5368848 68.675003
8.2886057 7.5368848 68.675003
8.4389877 7.5368848 68.675003
8.592495 7.539629 68.700005
8.7556572 7.5506029 68.800003
9.0195837 7.6466322 69.675003
9.432147 7.8633828 71.650002
9.8433237 8.0719023 73.550003
10.249219 8.2694473 75.350006
10.455682 8.302371 75.650009
-6.7919192 7.5667939 67.600006
-6.6414342 7.5639949 67.575005
-6.488657 7.5583992 67.525009
-6.3337512 7.550004 67.450005
-6.1814661 7.5444059 67.400002
-6.0293999 7.5388098 67.350006
-5.8797369 7.5360112 67.325005
-5.7301831 7.5332141 67.300003
-5.5828118 7.5332141 67.300003
-5.4374609 7.5360112 67.325005
-5.2900362 7.5360112 67.325005
-5.1426101 7.5360112 67.325005
-4.99333 7.5332141 67.300003
-4.8441601 7.5304151 67.275009
-4.691607 7.5220199 67.200005
-4.5393839 7.5136242 67.125008
-4.3858528 7.5024309 67.025009
-4.2343411 7.4940362 66.950005
-4.0846839 7.4884391 66.900002
-3.933774 7.4800439 66.825005
-3.78461 7.4744482 66.775009
-3.6343019 7.466053 66.700005
-3.485631 7.4604549 66.650002
-3.3359261 7.4520602 66.575005
-3.186548 7.443665 66.5
-3.0386441 7.4380689 66.450005
-2.889869 7.4296741 66.375008
-2.7414219 7.421278 66.300003
-2.5942841 7.4156809 66.25
-2.44644 7.4072862 66.175003
-2.2980549 7.3960929 66.075005
-2.1509221 7.3876982 66
-2.004118 7.379303 65.925003
-1.858348 7.3737059 65.875008
-1.713447 7.3709078 65.849998
-1.569252 7.3709078 65.849998
-1.4250571 7.3709078 65.849998
-1.280861 7.3709078 65.849998
-1.136234 7.3681092 65.825005
-0.99171698 7.3653111 65.800003
-0.84666401 7.356915 65.725006
-0.70033699 7.3317299 65.5
-0.55563301 7.31494 65.349998
-0.41205901 7.3065448 65.275002
-0.26901901 7.3037472 65.25
-0.126283 7.3121419 65.325005
0.016757 7.3093438 65.300003
0.159687 7.3065448 65.275002
0.301348 7.275763 65
0.44317001 7.2673678 64.925003
0.58534002 7.2673678 64.925003
0.72891098 7.2813601 65.050003
0.87302899 7.295352 65.175003
1.015746 7.295352 65.175003
1.1580189 7.2925539 65.150002
1.299683 7.2869558 65.100006
1.441129 7.2813601 65.050003
1.582355 7.275763 65
1.723363 7.2701659 64.950005
1.864869 7.2673678 64.925003
2.00704 7.2673678 64.925003
2.1500371 7.2701659 64.950005
2.294908 7.2785621 65.025002
2.441046 7.2897539 65.125
2.588613 7.3037472 65.25
2.736727 7.3177381 65.375
2.8842871 7.3289318 65.475006
3.0311301 7.337327 65.550003
3.175879 7.340126 65.575005
3.3207381 7.3429241 65.599998
3.4630661 7.340126 65.575005
3.605284 7.337327 65.550003
3.7459631 7.3317299 65.5
3.8893919 7.3317299 65.5
4.031281 7.3289318 65.475006
4.17625 7.3317299 65.5
4.3229761 7.337327 65.550003
4.4699221 7.3429241 65.599998
4.6206021 7.3541169 65.699997
4.7717218 7.3653111 65.800003
4.921411 7.3737059 65.875008
5.0695062 7.379303 65.925003
5.2158432 7.3821011 65.949997
5.3643212 7.3876982 66
5.5130191 7.3932939 66.050003
5.6597929 7.3960929 66.075005
5.8066769 7.398891 66.099998
5.9514198 7.398891 66.099998
6.0961628 7.398891 66.099998
6.245626 7.404489 66.150002
6.402555 7.4184799 66.275002
6.6859951 7.5751891 67.675003
6.8594341 7.6031728 67.925003
7.0417042 7.6395512 68.25
7.2385688 7.6899209 68.700005
7.3970718 7.6983171 68.775002
7.5476732 7.6983171 68.775002
7.6982732 7.6983171 68.775002
7.8488741 7.6983171 68.775002
7.9965668 7.695519 68.750008
8.1441488 7.6927199 68.724998
8.2946396 7.6927199 68.724998
8.448204 7.695519 68.750008
8.6081285 7.7039142 68.824997
8.867013 7.799058 69.675003
9.2752514 8.0201302 71.650002
9.6789761 8.2300072 73.525009
10.023996 8.3839178 74.900002
10.300226 8.476264 75.724998
-6.488657 7.7061219 67.525009
-6.3337512 7.6975632 67.450005
-6.1837592 7.6947088 67.425003
-6.0316381 7.689003 67.375008
-5.8819199 7.686151 67.350006
-5.7344398 7.686151 67.350006
-5.5890341 7.689003 67.375008
-5.4435182 7.6918559 67.400002
-5.295928 7.6918559 67.400002
-5.14643 7.689003 67.375008
-4.9970398 7.686151 67.350006
-4.8459601 7.6804438 67.300003
-4.6933532 7.671885 67.225006
-4.5410738 7.6633258 67.150002
-4.3891249 7.654767 67.075005
-4.2375031 7.6462069 67
-4.0862098 7.6376481 66.925003
-3.936718 7.6319432 66.875008
-3.786027 7.623384 66.800003
-3.637027 7.6176772 66.75
-3.486938 7.609118 66.675003
-3.337178 7.6005592 66.599998
-3.187747 7.592 66.525002
-3.0386441 7.5834398 66.450005
-2.8909571 7.577734 66.400002
-2.742456 7.5691738 66.325005
-2.595263 7.563468 66.275002
-2.4473641 7.5549102 66.200005
-2.299794 7.54635 66.125008
-2.151737 7.5349369 66.025002
-2.004878 7.5263782 65.949997
-1.859053 7.5206728 65.900002
-1.714098 7.5178199 65.875008
-1.5698479 7.5178199 65.875008
-1.426139 7.5206728 65.900002
-1.28232 7.5235262 65.925003
-1.13796 7.5235262 65.925003
-0.99360001 7.5235262 65.925003
-0.84891897 7.5206728 65.900002
-0.70354497 7.5092611 65.800003
-0.55733299 7.4807301 65.550003
-0.41363701 7.4778771 65.525002
-0.27015299 7.4778771 65.525002
-0.126766 7.483583 65.575005
0.01684 7.4892888 65.625008
0.16054299 7.4892888 65.625008
0.30412999 7.4864359 65.599998
0.44590101 7.4550519 65.325005
0.58872098 7.452199 65.300003
0.73339301 7.469317 65.449997
0.87570798 7.4607582 65.375
1.018084 7.4550519 65.325005
1.159797 7.4464931 65.25
1.30168 7.4407868 65.200005
1.443344 7.435081 65.150002
1.584181 7.4265218 65.075005
1.725353 7.420815 65.025002
1.8670239 7.417963 65
2.0093579 7.417963 65
2.152519 7.420815 65.025002
2.297555 7.4293752 65.100006
2.4447939 7.4436402 65.225006
2.5935709 7.4607582 65.375
2.74196 7.4750242 65.5
2.8908949 7.4892888 65.625008
3.0380659 7.497848 65.699997
3.1831441 7.500701 65.725006
3.328331 7.5035539 65.75
3.470988 7.500701 65.725006
3.612159 7.4949951 65.675003
3.7545409 7.4921422 65.650002
3.8968151 7.4892888 65.625008
4.0389781 7.4864359 65.599998
4.1826258 7.4864359 65.599998
4.3279228 7.4892888 65.625008
4.4784389 7.500701 65.725006
4.6329098 7.5178199 65.875008
4.7862248 7.5320849 66
4.934485 7.5377908 66.050003
5.0810399 7.5406442 66.075005
5.2296829 7.54635 66.125008
5.3785439 7.5520558 66.175003
5.5276251 7.5577631 66.225006
5.6790662 7.5663218 66.300003
5.8264432 7.5691738 66.325005
5.967176 7.563468 66.275002
6.1123018 7.563468 66.275002
6.26687 7.5748811 66.375008
6.542634 7.7289462 67.725006
6.7205729 7.7631831 68.025002
6.8973031 7.7945671 68.300003
7.082974 7.8345098 68.650002
7.2464719 7.8487749 68.775002
7.3997612 7.8516278 68.800003
7.550416 7.8516278 68.800003
7.7038689 7.8544812 68.824997
7.854579 7.8544812 68.824997
8.0052891 7.8544812 68.824997
8.1530371 7.8516278 68.800003
8.3067093 7.8544812 68.824997
8.5219336 7.9143958 69.350006
8.7144413 7.9514852 69.675003
9.1024485 8.162612 71.525002
9.5179749 8.3908577 73.525009
9.8139095 8.5078325 74.550003
10.110987 8.6219549 75.550003
10.364838 8.6961346 76.200005
10.538609 8.7018404 76.250008
10.705578 8.7018404 76.250008
-6.1837592 7.8422141 67.425003
-6.0338759 7.8393059 67.400002
-5.8906541 7.8451209 67.450005
-5.7535968 7.8596601 67.575005
-5.611846 7.8683829 67.650002
-5.4515939 7.8509369 67.5
-5.3018222 7.8480291 67.475006
-5.1521578 7.8451209 67.450005
-5.0007501 7.8393059 67.400002
-4.8477602 7.8305831 67.325005
-4.6968441 7.8247681 67.275009
-4.5427651 7.8131361 67.175003
-4.392396 7.8073211 67.125008
-4.240665 7.7985969 67.050003
-4.089263 7.7898741 66.975006
-3.939661 7.7840581 66.925003
-3.788861 7.7753348 66.849998
-3.639751 7.7695198 66.800003
-3.489553 7.760797 66.725006
-3.339684 7.7520738 66.650002
-3.1901419 7.74335 66.575005
-3.0397871 7.731719 66.475006
-2.892045 7.725904 66.425003
-2.744524 7.720088 66.375008
-2.5972209 7.714272 66.325005
-2.4492121 7.7055488 66.25
-2.301533 7.696826 66.175003
-2.1533661 7.685195 66.075005
-2.006398 7.6764722 66
-1.860464 7.6706562 65.949997
-1.715399 7.667748 65.925003
-1.571635 7.6706562 65.949997
-1.427762 7.673564 65.975006
-1.283779 7.6764722 66
-1.139686 7.679379 66.025002
-0.99510801 7.679379 66.025002
-0.85052902 7.679379 66.025002
-0.70514798 7.6706562 65.949997
-0.56009603 7.6619329 65.875008
-0.41521499 7.650301 65.775002
-0.270978 7.644486 65.725006
-0.12700801 7.6415792 65.699997
0.016866 7.644486 65.725006
0.160788 7.644486 65.725006
0.30470899 7.644486 65.725006
0.44846001 7.6415792 65.699997
0.59210199 7.63867 65.675003
0.73507398 7.6299472 65.599998
0.87771702 7.6212239 65.525002
1.020032 7.6125011 65.449997
1.1624629 7.6066861 65.400002
1.304175 7.5979629 65.325005
1.4461139 7.5921469 65.275002
1.587224 7.5834231 65.200005
1.72867 7.5776091 65.150002
1.8706141 7.5746999 65.125
2.013222 7.5746999 65.125
2.156657 7.5776091 65.150002
2.3019669 7.5863318 65.225006
2.4504161 7.6037769 65.375
2.5995231 7.6212239 65.525002
2.748239 7.6357632 65.650002
2.8964009 7.6473942 65.75
3.045002 7.6590252 65.849998
3.190408 7.6619329 65.875008
3.3359239 7.6648412 65.900002
3.478909 7.6619329 65.875008
3.620409 7.656117 65.825005
3.7616899 7.650301 65.775002
3.9027519 7.644486 65.725006
4.045135 7.6415792 65.699997
4.189002 7.6415792 65.699997
4.3361659 7.6473942 65.75
4.4937701 7.6706562 65.949997
4.655767 7.6997342 66.200005
4.8007288 7.6997342 66.200005
4.9456911 7.6997342 66.200005
5.0906529 7.6997342 66.200005
5.2356148 7.6997342 66.200005
5.3846402 7.7055488 66.25
5.533885 7.7113652 66.300003
5.6897731 7.725904 66.425003
5.8440118 7.737535 66.525002
5.9941869 7.74335 66.575005
6.1584158 7.766613 66.775009
6.4132161 7.9003692 67.925003
6.5836911 7.926538 68.150002
6.7477422 7.943985 68.300003
6.935173 7.9876008 68.675003
7.1036091 8.0079556 68.850006
7.25174 8.0050478 68.824997
7.405139 8.0079556 68.850006
7.555903 8.0079556 68.850006
7.709466 8.0108633 68.875
7.9487309 8.1010036 69.650002
8.17976 8.179513 70.325005
8.3959694 8.2405758 70.850006
8.5873213 8.2754698 71.150002
8.7676983 8.2987309 71.350006
9.0552645 8.4208574 72.400002
9.3601542 8.5546131 73.550003
9.640954 8.6622 74.475006
9.922514 8.7668791 75.375
10.20467 8.8686514 76.250008
10.378439 8.8744659 76.300003
-6.0391202 8.1941261 69.150002
-5.8876991 8.1941261 69.150002
-5.7383509 8.1970892 69.175003
-5.5828371 8.191164 69.125
-5.3155718 8.0163803 67.650002
-5.157887 8.0015678 67.525009
-5.0044589 7.992681 67.450005
-4.8513598 7.9837928 67.375008
-4.6985888 7.974905 67.300003
-4.5478368 7.9689808 67.25
-4.395668 7.960093 67.175003
-4.2438269 7.9512062 67.099998
-4.093843 7.945281 67.050003
-3.9440761 7.9393559 67
-3.794528 7.9334321 66.950005
-3.643837 7.9245439 66.875008
-3.4947829 7.9186192 66.825005
-3.343442 7.9067688 66.725006
-3.192538 7.8949199 66.625008
-3.04093 7.8801069 66.5
-2.892045 7.8712201 66.425003
-2.7455571 7.868258 66.400002
-2.5981989 7.8623319 66.349998
-2.4519849 7.8593702 66.325005
-2.304141 7.8504829 66.25
-2.1558111 7.8386331 66.150002
-2.0079179 7.8267841 66.050003
-1.861874 7.820858 66
-1.71735 7.820858 66
-1.572827 7.820858 66
-1.4293849 7.8267841 66.050003
-1.285724 7.8327079 66.099998
-1.141412 7.83567 66.125008
-0.99699199 7.8386331 66.150002
-0.85181701 7.83567 66.125008
-0.70648497 7.8297458 66.075005
-0.560947 7.8178959 65.975006
-0.416004 7.8090091 65.900002
-0.27149299 7.8030829 65.849998
-0.127249 7.8001218 65.825005
0.016891001 7.8001218 65.825005
0.16103201 7.8001218 65.825005
0.30505699 7.7971592 65.800003
0.44897199 7.7941961 65.775002
0.59255302 7.788271 65.725006
0.73591399 7.7823472 65.675003
0.87939203 7.7793851 65.650002
1.02198 7.7704959 65.575005
1.164685 7.7645721 65.525002
1.30717 7.758647 65.475006
1.449437 7.7527218 65.425003
1.591484 7.7467971 65.375
1.73265 7.7379098 65.300003
1.874205 7.7319851 65.25
2.017086 7.7319851 65.25
2.161623 7.7379098 65.300003
2.3081429 7.7497602 65.400002
2.4569759 7.7675338 65.550003
2.605473 7.7823472 65.675003
2.754519 7.7971592 65.800003
2.9030089 7.8090091 65.900002
3.050782 7.8178959 65.975006
3.1976731 7.8238211 66.025002
3.3435171 7.8267841 66.050003
3.48683 7.8238211 66.025002
3.628659 7.8178959 65.975006
3.7688389 7.8090091 65.900002
3.90869 7.8001218 65.825005
4.0512919 7.7971592 65.800003
4.1953778 7.7971592 65.800003
4.3674922 7.8475208 66.225006
4.5278401 7.8741832 66.450005
4.6698332 7.868258 66.400002
4.8134198 7.8652949 66.375008
4.9531622 7.8564081 66.300003
5.0964198 7.8534451 66.275002
5.2435241 7.8564081 66.300003
5.3927679 7.8623319 66.349998
5.548491 7.8771448 66.475006
5.7261772 7.9215808 66.849998
5.9208779 7.9867549 67.400002
6.1202388 8.0548916 67.975006
6.2806158 8.0697041 68.100006
6.4462609 8.0904408 68.275002
6.6175032 8.1171036 68.500008
6.8341889 8.1970892 69.175003
6.9856648 8.1970892 69.175003
7.165514 8.2296762 69.450005
7.3860798 8.3066988 70.100006
7.5610929 8.3303986 70.300003
7.7671609 8.3866854 70.775002
7.94173 8.4074221 70.950005
8.3053694 8.623682 72.775009
8.4792671 8.6384935 72.900002
8.680377 8.6799669 73.25
8.8679333 8.7066298 73.475006
9.0349693 8.7125549 73.525009
9.2303658 8.745141 73.800003
9.4746904 8.8221645 74.450005
9.7477522 8.9228888 75.300003
10.037701 9.0354614 76.250008
10.211361 9.0413857 76.300003
10.385241 9.0473108 76.350006
10.562796 9.0561981 76.425003
-5.7383509 8.3484221 69.175003
-5.584856 8.3454046 69.150002
-5.4314699 8.3423872 69.125
-5.1712551 8.1704111 67.700005
-5.011879 8.1523085 67.550003
-4.85496 8.1372223 67.425003
-4.7020798 8.128171 67.350006
-4.551219 8.1221361 67.300003
-4.3989401 8.1130857 67.225006
-4.2485709 8.1070509 67.175003
-4.0984221 8.101017 67.125008
-3.9484911 8.0949821 67.075005
-3.8001959 8.0919657 67.050003
-3.6506491 8.0859308 67
-3.5013199 8.0798969 66.950005
-3.3509581 8.0708456 66.875008
-3.2152989 8.0979996 67.099998
-3.0820849 8.1342049 67.400002
-2.936672 8.1402397 67.450005
-2.7900071 8.1432562 67.475006
-2.605052 8.0286055 66.525002
-2.455682 8.0165367 66.425003
-2.3076191 8.0074854 66.349998
-2.1582551 7.9924002 66.225006
-2.009438 7.977314 66.099998
-1.8632849 7.9712801 66.050003
-1.718001 7.9682631 66.025002
-1.574018 7.9712801 66.050003
-1.430467 7.977314 66.099998
-1.287183 7.9863648 66.175003
-1.1435699 7.9954171 66.25
-0.99849898 7.9954171 66.25
-0.85310602 7.9924002 66.225006
-0.70728701 7.9833479 66.150002
-0.56179702 7.974297 66.075005
-0.41679299 7.9682631 66.025002
-0.272008 7.9622278 65.975006
-0.127491 7.9592109 65.949997
0.016917 7.9561939 65.925003
0.16121601 7.953177 65.900002
0.30540499 7.95016 65.875008
0.44948399 7.9471431 65.849998
0.593454 7.9441261 65.825005
0.73703498 7.9380908 65.775002
0.88073099 7.9350739 65.75
1.023928 7.92904 65.699997
1.166906 7.9230061 65.650002
1.309666 7.9169712 65.599998
1.45276 7.9139552 65.575005
1.595745 7.9109368 65.550003
1.737956 7.9049029 65.5
1.879231 7.8958511 65.425003
2.0232689 7.8988681 65.449997
2.1682429 7.9049029 65.5
2.3143189 7.9139552 65.575005
2.4625981 7.92904 65.699997
2.6104319 7.9411092 65.800003
2.7597511 7.9561939 65.925003
2.9085159 7.9682631 66.025002
3.057719 7.9803319 66.125008
3.2049379 7.9863648 66.175003
3.3511109 7.9893832 66.200005
3.496073 7.9893832 66.200005
3.638284 7.9833479 66.150002
3.7774179 7.9712801 66.050003
3.9190819 7.9652462 66
4.0759201 7.9893832 66.200005
4.244792 8.0346394 66.575005
4.3922229 8.0376568 66.599998
4.5380611 8.0376568 66.599998
4.6803818 8.0316229 66.550003
4.824297 8.0286055 66.525002
5.050283 8.1583424 67.600006
5.2040768 8.1673937 67.675003
5.358201 8.176445 67.75
5.5126519 8.1854963 67.825005
5.66326 8.1885147 67.850006
5.8182588 8.1975651 67.925003
5.980175 8.2156677 68.075005
6.1382461 8.2277374 68.175003
6.3128948 8.2609253 68.450005
6.5430369 8.3635073 69.300003
6.6996179 8.3695421 69.350006
6.8514781 8.3695421 69.350006
7.0917001 8.4751415 70.224998
7.3950791 8.650136 71.675003
7.7021751 8.8221121 73.099998
7.8676238 8.8281469 73.150002
8.0360355 8.8371983 73.225006
8.3334999 8.9850378 74.450005
8.5164986 9.0061579 74.625
8.6857243 9.0121927 74.675003
8.8610945 9.0242615 74.775002
9.0248337 9.0242615 74.775002
9.1793566 9.0152102 74.700005
9.3304243 9.0031414 74.600006
9.5605927 9.0665016 75.125
9.8674955 9.1992559 76.225006
10.040992 9.2052889 76.275002
10.214707 9.2113237 76.325005
10.392041 9.2203751 76.400009
-5.586875 8.4997549 69.175003
-5.433434 8.4966822 69.150002
-5.2724638 8.4813232 69.025002
-5.037847 8.343091 67.900002
-4.8621612 8.2970142 67.525009
-4.7055712 8.2816553 67.400002
-4.5529089 8.272439 67.325005
-4.4022121 8.2662954 67.275009
-4.253314 8.2632236 67.25
-4.1030011 8.257081 67.200005
-3.9543769 8.2540083 67.175003
-3.8058629 8.2509375 67.150002
-3.6588211 8.2509375 67.150002
-3.5117791 8.2509375 67.150002
-3.371001 8.2662954 67.275009
-3.2296751 8.2816553 67.400002
-3.085515 8.2908707 67.475006
-2.9399381 8.2970142 67.525009
-2.794142 8.3031569 67.575005
-2.6471479 8.3062296 67.600006
-2.4963479 8.2970142 67.525009
-2.3250091 8.2140741 66.849998
-2.1712911 8.1864281 66.625008
-2.015518 8.1464949 66.300003
-1.864695 8.1219196 66.099998
-1.7193021 8.1188478 66.075005
-1.574614 8.1188478 66.075005
-1.431549 8.1280632 66.150002
-1.289614 8.1464949 66.300003
-1.1461591 8.1587811 66.400002
-1.000383 8.1557102 66.375008
-0.85439402 8.1495657 66.325005
-0.70862299 8.1434221 66.275002
-0.56286001 8.1342068 66.200005
-0.41742399 8.1249914 66.125008
-0.272524 8.1219196 66.099998
-0.127684 8.1157761 66.050003
0.016943 8.1127043 66.025002
0.16146 8.1096315 66
0.305868 8.1065607 65.975006
0.44999599 8.1004162 65.925003
0.59412998 8.0973444 65.900002
0.73787498 8.0912008 65.849998
0.88173598 8.08813 65.825005
1.025097 8.0819855 65.775002
1.168684 8.0789137 65.75
1.31266 8.0789137 65.75
1.4560831 8.0758419 65.725006
1.600005 8.0758419 65.725006
1.743927 8.0758419 65.725006
1.886412 8.0696983 65.675003
2.0286789 8.0635548 65.625008
2.174037 8.0696983 65.675003
2.3204961 8.0789137 65.75
2.467283 8.08813 65.825005
2.615391 8.1004162 65.925003
2.7649839 8.1157761 66.050003
2.914022 8.1280632 66.150002
3.0646551 8.1434221 66.275002
3.2122021 8.1495657 66.325005
3.3599689 8.1557102 66.375008
3.5079551 8.1618528 66.425003
3.654784 8.1649256 66.450005
3.8074419 8.1802855 66.575005
3.962132 8.1987152 66.725006
4.1113219 8.2048597 66.775009
4.257544 8.2048597 66.775009
4.4021149 8.201787 66.75
4.5482821 8.201787 66.75
4.694448 8.201787 66.75
4.8931899 8.2908707 67.475006
5.054018 8.3123732 67.650002
5.207922 8.3215895 67.725006
5.360178 8.3277321 67.775002
5.5146852 8.3369474 67.850006
5.6695199 8.3461637 67.925003
5.8289661 8.3615217 68.050003
5.9955478 8.386096 68.25
6.194519 8.4536772 68.800003
6.3982038 8.5243292 69.375
6.5524788 8.527401 69.400002
6.7044468 8.527401 69.400002
6.9675632 8.6656332 70.525002
7.2381282 8.8069382 71.675003
7.5343661 8.9728165 73.025009
7.8891978 9.2001324 74.875
8.1365108 9.2953596 75.650009
8.3158836 9.3107176 75.775002
8.5153923 9.34758 76.075005
8.7048035 9.3721542 76.275002
8.8805494 9.3813705 76.350006
9.0507002 9.3844414 76.375
9.0821629 9.2462101 75.250008
9.2162218 9.2154913 75.000008
9.3992138 9.233922 75.150002
9.7005816 9.3660107 76.225006
9.8707314 9.3690825 76.250008
10.040992 9.3721542 76.275002
10.224745 9.3875141 76.400009
-5.2858319 8.6542139 69.200005
-5.0712352 8.5479126 68.350006
-4.8855619 8.4853821 67.850006
-4.7108059 8.4384832 67.475006
-4.5562911 8.4259777 67.375008
-4.4054842 8.4197245 67.325005
-4.2564769 8.4165983 67.300003
-4.1075802 8.4134722 67.275009
-3.9587929 8.4103451 67.25
-3.8115311 8.4103451 67.25
-3.665633 8.4134722 67.275009
-3.519624 8.4165983 67.300003
-3.3760121 8.4259777 67.375008
-3.2320709 8.4353571 67.450005
-3.087801 8.4447355 67.525009
-2.9421151 8.4509897 67.575005
-2.7962091 8.457243 67.625008
-2.650085 8.4634953 67.675003
-2.5028181 8.4666224 67.700005
-2.3528321 8.4603691 67.650002
-2.193289 8.4165983 67.300003
-2.0383179 8.3853331 67.050003
-1.89079 8.382206 67.025009
-1.7440211 8.382206 67.025009
-1.597253 8.382206 67.025009
-1.448862 8.3728266 66.950005
-1.299826 8.3571939 66.825005
-1.151338 8.3415623 66.700005
-1.003774 8.3290558 66.599998
-0.85632598 8.3134222 66.475006
-0.70969301 8.3009167 66.375008
-0.56370997 8.2915373 66.300003
-0.41821301 8.285284 66.25
-0.27293599 8.2790318 66.200005
-0.127877 8.2727795 66.150002
0.016961999 8.2665253 66.099998
0.161644 8.2633991 66.075005
0.30610001 8.2571459 66.025002
0.450508 8.2540188 66
0.59458101 8.2477655 65.949997
0.73871499 8.2446384 65.925003
0.88274002 8.2415123 65.900002
1.026656 8.2383862 65.875008
1.1709059 8.2383862 65.875008
1.315156 8.2383862 65.875008
1.459406 8.2383862 65.875008
1.604265 8.2415123 65.900002
1.749233 8.2446384 65.925003
1.892157 8.2383862 65.875008
2.035634 8.2352591 65.849998
2.1798289 8.2352591 65.849998
2.3257899 8.2415123 65.900002
2.4729061 8.2508926 65.975006
2.6203499 8.260272 66.050003
2.76917 8.2727795 66.150002
2.92063 8.2915373 66.300003
3.0715909 8.307169 66.425003
3.2206781 8.3165493 66.5
3.3688281 8.3228025 66.550003
3.5171969 8.3290558 66.599998
3.6671591 8.3384352 66.675003
3.817451 8.3478146 66.75
3.968071 8.3571939 66.825005
4.1174788 8.3634472 66.875008
4.2655129 8.3665733 66.900002
4.4120078 8.3665733 66.900002
4.5602059 8.3696985 66.925003
4.7296119 8.4103451 67.25
4.9004421 8.4509897 67.575005
5.054018 8.4603691 67.650002
5.207922 8.4697475 67.725006
5.362155 8.4791288 67.800003
5.516716 8.4885082 67.875
5.677866 8.507267 68.025002
5.8546629 8.5479126 68.350006
6.059237 8.6260748 68.974998
6.2485409 8.679225 69.400002
6.4074268 8.6886044 69.474998
6.5595598 8.6886044 69.474998
6.8300352 8.8418055 70.700005
7.0737681 8.95436 71.599998
7.361835 9.1169386 72.900002
7.7329779 9.3733139 74.950005
7.9655871 9.4546032 75.600006
8.144577 9.4702358 75.724998
8.3213711 9.4827423 75.825005
8.5405779 9.5421457 76.300003
8.7162151 9.5515251 76.375
8.8863659 9.5546522 76.400009
9.0536633 9.5546522 76.400009
9.2209606 9.5546522 76.400009
9.3821135 9.548399 76.350006
9.543047 9.5421457 76.300003
9.703763 9.5358934 76.250008
10.000184 9.6609545 77.25
10.166052 9.6578274 77.225006
10.33181 9.6547012 77.200005
-4.9071641 8.6719904 68.150002
-4.7352419 8.6306343 67.825005
-4.5596709 8.5797348 67.425003
-4.4087548 8.5733728 67.375008
-4.2596388 8.5701923 67.350006
-4.1106329 8.5670109 67.325005
-3.963207 8.5670109 67.325005
-3.817199 8.5701923 67.350006
-3.6710811 8.5733728 67.375008
-3.5248539 8.5765543 67.400002
-3.381022 8.5860977 67.475006
-3.2356651 8.5924606 67.525009
-3.0912311 8.6020041 67.600006
-2.94538 8.608366 67.650002
-2.7993109 8.6147289 67.700005
-2.6530221 8.6210909 67.75
-2.508363 8.6338158 67.850006
-2.365005 8.6529036 68
-2.2209899 8.6719904 68.150002
-2.074038 8.6815338 68.225006
-1.925347 8.6847153 68.25
-1.775896 8.6847153 68.25
-1.627041 8.6878967 68.275002
-1.476454 8.6815338 68.225006
-1.304202 8.5320177 67.050003
-1.156085 8.5224733 66.975006
-1.007542 8.506567 66.849998
-0.85954601 8.4906616 66.725006
-0.71129602 8.4652109 66.525002
-0.56456 8.4493055 66.400002
-0.418845 8.4429426 66.349998
-0.273348 8.4365807 66.300003
-0.12811901 8.4333992 66.275002
0.017000999 8.4302177 66.25
0.16195001 8.4238558 66.200005
0.30644801 8.41113 66.099998
0.450679 8.4015865 66.025002
0.59503198 8.398406 66
0.73927599 8.3952246 65.975006
0.88340998 8.3920431 65.949997
1.027824 8.3920431 65.949997
1.172683 8.3952246 65.975006
1.317652 8.398406 66
1.463837 8.4079494 66.075005
1.609742 8.4143124 66.125008
1.75454 8.4143124 66.125008
1.899338 8.4143124 66.125008
2.041044 8.4015865 66.025002
2.1847949 8.398406 66
2.331084 8.4047689 66.050003
2.4766541 8.4079494 66.075005
2.6243179 8.4174929 66.150002
2.7744031 8.4333992 66.275002
2.928339 8.458849 66.475006
3.0796831 8.4747543 66.599998
3.227942 8.4811172 66.650002
3.376421 8.4874802 66.700005
3.523798 8.4906616 66.725006
3.6726601 8.4970245 66.775009
3.8231699 8.506567 66.849998
3.9725239 8.5129299 66.900002
4.1236358 8.5224733 66.975006
4.2718892 8.5256548 67
4.4235492 8.5351982 67.075005
4.57724 8.5479231 67.175003
4.7454362 8.5860977 67.475006
4.904068 8.6051865 67.625008
5.057754 8.6147289 67.700005
5.2136898 8.6274538 67.800003
5.3700638 8.6401787 67.900002
5.537035 8.6688089 68.125
5.715426 8.7133455 68.474998
5.9124818 8.7833328 69.025002
6.1031599 8.8405943 69.474998
6.2620459 8.8501387 69.550003
6.4143429 8.8501387 69.550003
6.689383 9.0155621 70.850006
6.8976598 9.0855484 71.400002
7.1305752 9.184166 72.175003
7.563807 9.5309181 74.900002
7.7897239 9.6072683 75.500008
7.9655871 9.6199923 75.600006
8.144577 9.6358986 75.724998
8.3488073 9.6804361 76.075005
8.546174 9.7154293 76.350006
8.7162151 9.7186098 76.375
8.8863659 9.7217922 76.400009
9.0566254 9.7249727 76.425003
9.2209606 9.7217922 76.400009
9.3821135 9.7154293 76.350006
9.546175 9.7122478 76.325005
9.837389 9.8363152 77.300003
10.00342 9.8331337 77.275002
10.169343 9.8299522 77.25
-4.4120269 8.7272387 67.425003
-4.26122 8.720768 67.375008
-4.1136861 8.720768 67.375008
-3.966151 8.720768 67.375008
-3.8200331 8.7240028 67.400002
-3.673805 8.7272387 67.425003
-3.5287759 8.7337103 67.475006
-3.3847799 8.7434187 67.550003
-3.2392581 8.7498903 67.600006
-3.094661 8.7595978 67.675003
-2.9486461 8.7660704 67.725006
-2.8034451 8.7757778 67.800003
-2.6598749 8.7919569 67.925003
-2.519454 8.8210802 68.150002
-2.3719611 8.8275518 68.200005
-2.223434 8.8307877 68.225006
-2.074038 8.8307877 68.225006
-1.926053 8.8372593 68.275002
-1.776547 8.8372593 68.275002
-1.628233 8.8437309 68.325005
-1.478618 8.8437309 68.325005
-1.329489 8.8469677 68.350006
-1.167305 8.7531261 67.625008
-1.01131 8.6851711 67.099998
-0.86341101 8.6754646 67.025009
-0.71477097 8.652813 66.849998
-0.56604803 8.617218 66.575005
-0.42010701 8.6139822 66.550003
-0.27427599 8.6107454 66.525002
-0.128989 8.6366329 66.725006
0.017193001 8.6722288 67
0.164212 8.6884079 67.125008
0.31027299 8.6625204 66.925003
0.45255601 8.5816231 66.300003
0.59548301 8.549264 66.050003
0.740116 8.549264 66.050003
0.88441497 8.5460272 66.025002
1.028993 8.5460272 66.025002
1.174461 8.5524998 66.075005
1.3211451 8.565444 66.175003
1.468268 8.5783873 66.275002
1.615829 8.5913305 66.375008
1.761173 8.5913305 66.375008
1.9058 8.5880947 66.349998
2.0487721 8.5783873 66.275002
2.190588 8.565444 66.175003
2.335495 8.565444 66.175003
2.481339 8.5686798 66.200005
2.629277 8.5783873 66.275002
2.7806821 8.5978022 66.425003
2.936048 8.6269264 66.650002
3.085464 8.6366329 66.725006
3.2327859 8.6398687 66.75
3.380218 8.6431065 66.775009
3.5277591 8.6463413 66.800003
3.67816 8.6560488 66.875008
3.8274591 8.6625204 66.925003
3.978462 8.6722288 67
4.1313319 8.6851711 67.099998
4.2846408 8.6981163 67.200005
4.436739 8.7078238 67.275009
4.5959792 8.7304745 67.450005
4.7542281 8.7498903 67.600006
4.916759 8.7757778 67.800003
5.0969748 8.8307877 68.225006
5.2617512 8.8566761 68.425003
5.4115849 8.8566761 68.425003
5.5756431 8.8793268 68.600006
5.7863741 8.9731674 69.325005
5.9660168 9.015234 69.650002
6.1207299 9.0184708 69.675003
6.2755518 9.0217066 69.700005
6.5411549 9.1802654 70.925003
6.7082658 9.1964455 71.050003
6.9097362 9.2579279 71.525002
7.1577439 9.377656 72.450005
7.6041999 9.7465496 75.300003
8.3844738 9.8889294 76.400009
8.5545692 9.8921652 76.425003
8.7219219 9.8921652 76.425003
8.8921814 9.895401 76.450005
9.0595865 9.895401 76.450005
9.2209606 9.8889294 76.400009
9.3851852 9.8856936 76.375
-3.8228669 8.8780346 67.450005
-3.6765299 8.8813248 67.475006
-3.5313909 8.8879061 67.525009
-3.3872859 8.8977795 67.600006
-3.242852 8.907649 67.675003
-3.0980899 8.9175215 67.75
-2.954088 8.9306841 67.850006
-2.809648 8.9438457 67.950005
-2.672601 8.9833326 68.25
-2.5277719 8.9997864 68.375
-2.3754389 8.9899149 68.300003
-2.2242489 8.9833326 68.25
-2.0747981 8.9833326 68.25
-1.926053 8.9866247 68.275002
-1.777197 8.9899149 68.300003
-1.628829 8.9964952 68.350006
-1.4797 8.9997864 68.375
-1.330462 9.0030766 68.400002
-1.1806819 9.0030766 68.400002
-1.030903 9.0030766 68.400002
-0.88015699 8.9932051 68.325005
-0.72011799 8.864872 67.350006
-0.56966197 8.8188028 67
-0.422001 8.7990599 66.849998
-0.27571899 8.802351 66.875008
-0.130004 8.8517094 67.25
0.017392 8.9208117 67.775002
0.165986 8.9306841 67.850006
0.31456101 8.9306841 67.850006
0.46296501 8.927393 67.825005
0.61126 8.9241028 67.800003
0.75944501 8.9208117 67.775002
0.905177 8.8944864 67.575005
1.036007 8.7497005 66.475006
1.1789041 8.7299566 66.325005
1.326636 8.7464104 66.450005
1.473253 8.7529917 66.5
1.6200891 8.759572 66.550003
1.765817 8.759572 66.550003
1.910827 8.7562819 66.525002
2.055728 8.7529917 66.5
2.1963811 8.7332468 66.349998
2.3399069 8.7266665 66.300003
2.4850881 8.7266665 66.300003
2.6342361 8.7398291 66.400002
2.793241 8.7826061 66.725006
2.9470611 8.8056412 66.900002
3.0935559 8.8056412 66.900002
3.2388401 8.802351 66.875008
3.3852799 8.802351 66.875008
3.53304 8.8056412 66.900002
3.6822851 8.8122215 66.950005
3.8360381 8.8286753 67.075005
3.9933071 8.8517094 67.25
4.1559601 8.8846149 67.5
4.3181152 8.9142303 67.725006
4.4763079 8.9339743 67.875
4.631752 8.9471359 67.975006
4.8016992 8.9866247 68.275002
4.9784002 9.0359821 68.650002
5.2183771 9.1939316 69.850006
5.3770981 9.203804 69.925003
5.5321941 9.2070942 69.950005
5.6853681 9.2070942 69.950005
5.8343682 9.2005138 69.900009
5.9852901 9.1972218 69.875
6.1404948 9.2005138 69.900009
6.3858471 9.3354273 70.925003
6.5549889 9.3551712 71.075005
6.7531128 9.414402 71.525002
6.9773598 9.5065384 72.225006
-3.389791 9.0523558 67.650002
-3.2452481 9.0623913 67.725006
-3.1003771 9.0724277 67.800003
-2.9595301 9.0958443 67.975006
-2.8251531 9.1426783 68.325005
-2.6833701 9.1694403 68.525002
-2.563817 9.2798347 69.350006
-2.4163051 9.2965622 69.474998
-2.2641709 9.2965622 69.474998
-2.110518 9.2898712 69.425003
-1.951442 9.2564192 69.175003
-1.790858 9.2095833 68.824997
-1.631212 9.1594048 68.450005
-1.481323 9.1594048 68.450005
-1.331434 9.1594048 68.450005
-1.181545 9.1594048 68.450005
-1.031657 9.1594048 68.450005
-0.88176799 9.1594048 68.450005
-0.73161203 9.1560602 68.425003
-0.58135301 9.1493692 68.375
-0.43131199 9.1426783 68.325005
-0.28118199 9.1259527 68.200005
-0.13164701 9.1125708 68.100006
0.017449999 9.0991888 68
0.16623101 9.0924997 67.950005
0.31479299 9.0858088 67.900002
0.46330699 9.0824633 67.875
0.61171103 9.0791178 67.850006
0.76000601 9.0757732 67.825005
0.908526 9.0757732 67.825005
1.056267 9.0690823 67.775002
1.1864589 8.9319248 66.75
1.331127 8.9218893 66.675003
1.477129 8.9218893 66.675003
1.62374 8.9252357 66.700005
1.769797 8.9252357 66.700005
1.916572 8.9285803 66.725006
2.0626831 8.9285803 66.725006
2.207139 8.9218893 66.675003
2.3487301 8.9051638 66.550003
2.494458 8.9051638 66.550003
2.657047 8.9620333 66.975006
2.8110321 8.9854498 67.150002
2.9591751 8.9887943 67.175003
3.112052 9.0055218 67.300003
3.2654769 9.0222473 67.425003
3.414387 9.0255938 67.450005
3.558125 9.0155582 67.375008
3.709785 9.0255938 67.450005
3.8646331 9.0423193 67.575005
4.021513 9.0623913 67.725006
4.179049 9.0824633 67.875
4.335649 9.0991888 68
4.501039 9.1326427 68.25
4.6862631 9.2028942 68.775002
4.8491712 9.2263107 68.950005
5.067235 9.3500862 69.875
5.223979 9.3567772 69.925003
5.3809428 9.3634672 69.974998
5.536149 9.3668137 70.000008
5.6894312 9.3668137 70.000008
5.8448009 9.3701582 70.025002
6.0067039 9.3835392 70.125
6.2239499 9.4805527 70.850006
6.3880968 9.4939337 70.950005
6.6057138 9.5842571 71.625008
6.779078 9.6076746 71.800003
-3.578948 9.7137489 71.425003
-3.2524359 9.2309513 67.875
-3.112952 9.2581511 68.075005
-2.975857 9.2955513 68.350006
-2.8416929 9.3465509 68.724998
-2.7127399 9.4213495 69.275002
-2.5675139 9.4451504 69.450005
-2.4180441 9.4553499 69.525002
-2.270689 9.4757509 69.675003
-2.122678 9.49615 69.825005
-1.974715 9.5199499 70.000008
-1.8201309 9.5131493 69.950005
-1.665766 9.5063496 69.900009
-1.511079 9.49615 69.825005
-1.332407 9.3159513 68.500008
-1.182408 9.3159513 68.500008
-1.03241 9.3159513 68.500008
-0.88241202 9.3159513 68.500008
-0.73214602 9.3125505 68.474998
-0.58177799 9.3057518 68.425003
-0.431786 9.302351 68.400002
-0.28169701 9.2921515 68.325005
-0.131889 9.2785511 68.225006
0.017475 9.2615519 68.100006
0.16641399 9.2513514 68.025002
0.315025 9.2411518 67.950005
0.46364799 9.237752 67.925003
0.61216199 9.2343512 67.900002
0.76084602 9.2343512 67.900002
0.909531 9.2343512 67.900002
1.057825 9.2309513 67.875
1.2060111 9.2275515 67.850006
1.33512 9.0949516 66.875008
1.480453 9.0881519 66.825005
1.6273921 9.0915518 66.849998
1.7744401 9.0949516 66.875008
1.92088 9.0949516 66.875008
2.068866 9.1017513 66.925003
2.2170701 9.108552 66.975006
2.3681409 9.1255512 67.099998
2.5197589 9.1425514 67.225006
2.6689489 9.1493521 67.275009
2.8183579 9.1561518 67.325005
2.9668851 9.1595526 67.350006
3.1201451 9.1765518 67.475006
3.3357019 9.36695 68.875
3.4928491 9.3839512 69.000008
3.6505439 9.4009504 69.125
3.807411 9.4145498 69.224998
3.9589961 9.4145498 69.224998
4.109098 9.41115 69.200005
4.2575498 9.4043503 69.150002
4.4073782 9.4009504 69.125
4.557096 9.3975506 69.100006
4.7067051 9.3941507 69.075005
4.9001598 9.4757509 69.675003
5.0708609 9.5097494 69.925003
5.227715 9.5165501 69.974998
5.3828659 9.5199499 70.000008
5.538126 9.5233498 70.025002
5.695528 9.5301504 70.075005
5.8573208 9.5437498 70.175003
6.0580988 9.6185493 70.725006
6.2261462 9.6389484 70.875
-2.4658661 9.7974558 70.900002
-2.309797 9.7940016 70.875
-2.1553581 9.7974558 70.900002
-1.9979891 9.7870922 70.825005
-1.844851 9.7974558 70.900002
-1.674107 9.7076349 70.250008
-1.51162 9.65236 69.850006
-1.357693 9.6454506 69.800003
-1.183272 9.4727163 68.550003
-1.033164 9.4727163 68.550003
-0.88305598 9.4727163 68.550003
-0.73268098 9.4692621 68.525002
-0.58241498 9.4658079 68.500008
-0.43210101 9.4588976 68.450005
-0.282006 9.4519882 68.400002
-0.132082 9.4416246 68.325005
0.017507 9.4278059 68.225006
0.166659 9.4139872 68.125
0.315604 9.4070778 68.075005
0.464331 9.4001684 68.025002
0.61306298 9.3967133 68
0.76168698 9.393259 67.975006
0.91053498 9.393259 67.975006
1.059384 9.393259 67.975006
1.207788 9.3898039 67.950005
1.350593 9.3483486 67.650002
1.4843301 9.2585268 67
1.631043 9.2585268 67
1.77842 9.261982 67.025009
1.925189 9.261982 67.025009
2.073503 9.2688913 67.075005
2.223691 9.2827091 67.175003
2.373435 9.2930737 67.25
2.5235071 9.3034372 67.325005
2.6729159 9.3103466 67.375008
2.8225441 9.317256 67.425003
2.9723909 9.3241653 67.475006
3.1814151 9.5072632 68.800003
3.3405449 9.5314465 68.974998
3.5042391 9.5659924 69.224998
3.6663871 9.5936308 69.425003
3.8115361 9.5763569 69.300003
3.9589961 9.5659924 69.224998
4.109098 9.5625381 69.200005
4.2606292 9.5625381 69.200005
4.4105659 9.5590839 69.175003
4.5620432 9.5590839 69.175003
4.7152219 9.5625381 69.200005
4.9177418 9.6627235 69.925003
5.0744872 9.6696329 69.974998
5.231451 9.6765423 70.025002
5.3867102 9.6799955 70.050003
5.5440569 9.6869068 70.100006
5.7036548 9.6972704 70.175003
5.8865352 9.745636 70.525002
-1.357693 9.7981501 69.800003
-1.203985 9.791132 69.750008
-1.033917 9.6297007 68.600006
-0.88370001 9.6297007 68.600006
-0.73321497 9.6261911 68.574997
-0.58284003 9.6226826 68.550003
-0.43257499 9.619173 68.525002
-0.282419 9.6156635 68.500008
-0.13237201 9.612154 68.474998
0.017558999 9.6051359 68.425003
0.16714799 9.5910978 68.325005
0.31606799 9.5700417 68.175003
0.465013 9.5630236 68.125
0.61396497 9.559514 68.100006
0.76280701 9.5560045 68.075005
0.91153997 9.552495 68.050003
1.060553 9.552495 68.050003
1.209566 9.552495 68.050003
1.358079 9.5489864 68.025002
1.48876 9.433177 67.200005
1.634086 9.4226484 67.125008
1.781074 9.4226484 67.125008
1.928779 9.426158 67.150002
2.0773671 9.433177 67.200005
2.227001 9.4437046 67.275009
2.3760819 9.4507236 67.325005
2.5253811 9.4577427 67.375008
2.6749001 9.4647608 67.425003
3.027456 9.6472483 68.724998
3.1883509 9.6788321 68.950005
3.3635499 9.7490196 69.450005
3.5763741 9.917469 70.650009
3.7429631 9.9490528 70.875
3.895412 9.9420347 70.825005
3.981873 9.7735853 69.625
4.1105819 9.7174358 69.224998
4.2606292 9.7139263 69.200005
4.4121599 9.7139263 69.200005
4.5669889 9.7209444 69.250008
4.7237401 9.731473 69.325005
4.9194999 9.8192062 69.950005
5.0763001 9.8262262 70.000008
5.231451 9.8297348 70.025002
5.3905549 9.8402634 70.100006
5.5480118 9.8472815 70.150009
-1.203985 9.9437218 69.750008
-0.89658201 9.9223375 69.600006
-0.43304801 9.7797756 68.600006
-0.28272799 9.7762108 68.574997
-0.13256501 9.7762108 68.574997
0.017596999 9.7762108 68.574997
0.16769899 9.7726469 68.550003
0.31711099 9.7512627 68.400002
0.465866 9.7298775 68.25
0.61464101 9.7191868 68.175003
0.76364702 9.7156219 68.150002
0.91287899 9.7156219 68.150002
1.061722 9.7120581 68.125
1.210899 9.7120581 68.125
1.3595769 9.7084951 68.100006
1.489868 9.5873175 67.25
1.635303 9.5766239 67.175003
1.7824 9.5766239 67.175003
1.930933 9.5837517 67.225006
2.079685 9.5908804 67.275009
2.2286561 9.5980082 67.325005
2.3787291 9.6086998 67.400002
2.5272551 9.6122646 67.425003
4.2652469 9.8760042 69.275002
4.4185362 9.8795691 69.300003
4.5719352 9.8831329 69.325005
4.7578092 9.9544144 69.825005
4.921258 9.9757986 69.974998
5.0781131 9.9829264 70.025002
5.2333179 9.9864902 70.050003
-0.132759 9.9407072 68.675003
0.017616 9.9370871 68.650002
0.167943 9.9370871 68.650002
0.31815401 9.9334698 68.625
0.46740201 9.9117575 68.474998
0.61576802 9.886425 68.300003
0.76448798 9.8755684 68.225006
0.91321403 9.8683319 68.175003
1.062111 9.8647127 68.150002
1.210899 9.8610945 68.125
1.360076 9.8610945 68.125
1.490422 9.7380571 67.275009
1.6359119 9.7272015 67.200005
1.783727 9.7308187 67.225006
1.9323699 9.7380571 67.275009
2.0812311 9.7452936 67.325005
2.2303121 9.752532 67.375008
1.348596 9.9256411 67.550003
1.482114 9.8301315 66.900002
1.628 9.826458 66.875008
1.779083 9.8521729 67.050003
1.9330879 9.8889055 67.300003
2.0820041 9.8962536 67.350006
2.2303121 9.8999271 67.375008
1.331127 9.9429331 66.675003
1.450545 9.7639828 65.475006
1.594527 9.7677116 65.5
1.88354 9.7788954 65.575005
1.306671 9.9034386 65.449997
1.739283 9.9185715 65.550003
2.0279059 9.926136 65.599998
2.1212261 -4.9815421 73.850006
2.2837119 -4.9832282 73.875008
2.4471359 -4.9866009 73.925003
2.6125431 -4.9933462 74.025002
4.7229881 -4.9967189 74.075005
4.7681341 -4.876987 72.300003
4.9315639 -4.8820462 72.375008
5.0970802 -4.8887911 72.475006
5.2630348 -4.8955359 72.575005
5.4705172 -4.9393821 73.225006
5.6404738 -4.947814 73.350006
5.8030701 -4.949501 73.375008
5.965775 -4.9511871 73.400002
6.1285901 -4.9528732 73.425003
6.2936549 -4.9562459 73.475006
6.4567442 -4.957932 73.5
6.617691 -4.957932 73.5
6.7763319 -4.9562459 73.475006
6.890017 -4.9225192 72.975006
7.0377378 -4.9140868 72.849998
7.1923232 -4.9107141 72.800003
7.3492131 -4.9090281 72.775009
7.5059919 -4.907341 72.75
7.662663 -4.9056549 72.725006
1.474871 -4.8216128 73.875008
1.63664 -4.8216128 73.875008
1.797799 -4.8199821 73.850006
1.9595129 -4.8199821 73.850006
2.120508 -4.8183489 73.825005
2.2829399 -4.8199821 73.850006
2.444653 -4.8199821 73.850006
2.607249 -4.8216128 73.875008
2.769954 -4.823245 73.900002
2.935745 -4.829771 74
3.1051121 -4.8411932 74.175003
3.2884619 -4.8721948 74.650002
3.4658 -4.8917751 74.950005
3.633554 -4.8966699 75.025002
3.745954 -4.829771 74
3.8961141 -4.8150859 73.775009
4.061789 -4.8199821 73.850006
4.2263608 -4.823245 73.900002
4.3970909 -4.833035 74.050003
4.5515461 -4.8248758 73.925003
4.6050329 -4.713922 72.225006
4.7466998 -4.6976051 71.975006
4.9213428 -4.713922 72.225006
5.091805 -4.7253442 72.400002
5.257596 -4.7318711 72.5
5.4312949 -4.7449241 72.700005
5.6308622 -4.7791891 73.225006
5.7991161 -4.7857161 73.325005
5.9617109 -4.7873478 73.350006
6.126503 -4.7906108 73.400002
6.2936549 -4.795506 73.475006
6.458941 -4.798769 73.525009
6.6199422 -4.798769 73.525009
