ply
format ascii 1.0
comment PCL generated
element vertex 1539
property float x
property float y
property float z
element face 0
element camera 0
property float view_px
property float view_py
property float view_pz
property float x_axisx
property float x_axisy
property float x_axisz
property float y_axisx
property float y_axisy
property float y_axisz
property float z_axisx
property float z_axisy
property float z_axisz
property float focal
property float scalex
property float scaley
property float centerx
property float centery
property int viewportx
property int viewporty
property float k1
property float k2
end_header
-7.6857638 -2.93536 67.650002
-7.5459838 -2.9386139 67.725006
-7.4086061 -2.9429531 67.825005
-7.2761421 -2.9494619 67.975006
-7.148263 -2.9581399 68.175003
-7.016943 -2.965734 68.350006
-6.8873668 -2.974411 68.550003
-6.7520018 -2.9809201 68.700005
-6.6087732 -2.984174 68.775002
-6.4628682 -2.9863441 68.824997
-6.3121572 -2.9863441 68.824997
-6.1592088 -2.9852591 68.800003
-6.0041881 -2.983089 68.750008
-5.8472562 -2.979835 68.675003
-5.6885791 -2.9754961 68.574997
-5.5263019 -2.9689879 68.425003
-5.358788 -2.9592249 68.200005
-5.19417 -2.950547 68
-5.037847 -2.946208 67.900002
-4.8837619 -2.9429531 67.825005
-4.7300062 -2.9396989 67.75
-4.578269 -2.93753 67.700005
-4.4251151 -2.9342749 67.625008
-4.2707081 -2.9299359 67.525009
-4.115212 -2.9245119 67.400002
-3.9587929 -2.918004 67.25
-3.80303 -2.911495 67.099998
-3.649286 -2.9060719 66.975006
-3.4960899 -2.9006481 66.849998
-3.3446939 -2.8963079 66.75
-3.193737 -2.8919699 66.650002
-2.9849131 -2.8323081 65.275002
-2.8310919 -2.82146 65.025002
-2.6887031 -2.82146 65.025002
-2.546314 -2.82146 65.025002
-2.4057729 -2.8236301 65.075005
-2.268492 -2.830138 65.225006
-2.1289239 -2.8344769 65.325005
-1.9866379 -2.835562 65.349998
-1.843538 -2.835562 65.349998
-1.699136 -2.8333931 65.300003
-1.550187 -2.8225451 65.050003
-1.398005 -2.803019 64.600006
-1.2541161 -2.797596 64.475006
-1.1120681 -2.7954259 64.425003
-0.97099298 -2.7954259 64.425003
-0.82991803 -2.7954259 64.425003
-0.68910998 -2.7965109 64.450005
-0.54798102 -2.7965109 64.450005
-0.40732399 -2.7997651 64.525002
-0.270771 -2.849664 65.675003
-0.12739401 -2.859427 65.900002
0.016923999 -2.8615961 65.949997
0.161644 -2.8670199 66.075005
0.30691099 -2.8724439 66.200005
0.45255601 -2.8767829 66.300003
0.61103499 -2.940784 67.775002
-10.940734 -2.7863331 67.625008
-10.804621 -2.7894239 67.700005
-10.664245 -2.7914829 67.75
-10.51977 -2.7925141 67.775002
-10.367533 -2.7914829 67.75
-10.200322 -2.7863331 67.625008
-10.03366 -2.781183 67.5
-9.8748655 -2.7780931 67.425003
-9.7200098 -2.7760329 67.375008
-9.568923 -2.775003 67.350006
-9.4144478 -2.772943 67.300003
-9.2636356 -2.7719131 67.275009
-9.1129313 -2.7708819 67.25
-8.9656706 -2.7708819 67.25
-8.818409 -2.7708819 67.25
-8.6711473 -2.7708819 67.25
-8.5270557 -2.7719131 67.275009
-8.3828545 -2.772943 67.300003
-8.2385426 -2.773973 67.325005
-8.097126 -2.7760329 67.375008
-7.9584398 -2.7791231 67.450005
-7.8165312 -2.781183 67.5
-7.6772432 -2.7842729 67.575005
-7.5376272 -2.7873631 67.650002
-7.400413 -2.7914829 67.75
-7.2707901 -2.7986939 67.925003
-7.140399 -2.8059051 68.100006
-7.009243 -2.8131149 68.275002
-6.8773198 -2.8203261 68.450005
-6.7397161 -2.8254759 68.574997
-6.5967612 -2.8285661 68.650002
-6.4534769 -2.831656 68.724998
-6.3052802 -2.8326859 68.750008
-6.1547332 -2.8326859 68.750008
-6.0020041 -2.831656 68.724998
-5.8451271 -2.8285661 68.650002
-5.6865048 -2.824446 68.550003
-5.5263019 -2.8192959 68.425003
-5.3627172 -2.8120849 68.25
-5.197989 -2.803844 68.050003
-5.037847 -2.7976639 67.900002
-4.8819618 -2.7935441 67.800003
-4.728261 -2.7904539 67.725006
-4.5765781 -2.788393 67.675003
-4.4218431 -2.7842729 67.575005
-4.2691259 -2.781183 67.5
-4.1136861 -2.7760329 67.375008
-3.9587929 -2.7708819 67.25
-3.80303 -2.7647021 67.099998
-3.6465621 -2.7574911 66.925003
-3.4921679 -2.7513111 66.775009
-3.339684 -2.746161 66.650002
-3.1853509 -2.73895 66.475006
-2.972337 -2.6781759 65
-2.827826 -2.676116 64.950005
-2.6845679 -2.675086 64.925003
-2.542398 -2.675086 64.925003
-2.400228 -2.675086 64.925003
-2.2597971 -2.677146 64.975006
-2.121592 -2.682296 65.100006
-1.982838 -2.6874471 65.225006
-1.839306 -2.6864171 65.200005
-1.69198 -2.6792059 65.025002
-1.5412509 -2.6647849 64.675003
-1.3947591 -2.655515 64.450005
-1.2526571 -2.653455 64.400009
-1.111637 -2.653455 64.400009
-0.97061598 -2.653455 64.400009
-0.829274 -2.6524241 64.375
-0.68857598 -2.653455 64.400009
-0.54712999 -2.6513951 64.350006
-0.40606201 -2.6503639 64.325005
-0.26530901 -2.6513951 64.350006
-0.125606 -2.677146 64.975006
0.016879 -2.710108 65.775002
0.161155 -2.7142291 65.875008
0.30610001 -2.7204089 66.025002
0.45221499 -2.7296801 66.25
0.61080903 -2.7914829 67.75
0.75944501 -2.7925141 67.775002
0.90819103 -2.7935441 67.800003
-11.203665 -2.630589 67.425003
-11.060121 -2.6315639 67.450005
-10.924556 -2.63449 67.525009
-10.784672 -2.636441 67.575005
-10.648504 -2.6393671 67.650002
-10.504248 -2.640342 67.675003
-10.333103 -2.63449 67.525009
-10.162614 -2.628638 67.375008
-10.011363 -2.6276629 67.350006
-9.8602209 -2.626687 67.325005
-9.7091894 -2.6257119 67.300003
-9.5582676 -2.624737 67.275009
-9.4074535 -2.6237609 67.25
-9.2567501 -2.622786 67.225006
-9.1061563 -2.62181 67.200005
-8.9556713 -2.6208351 67.175003
-8.8052969 -2.6198599 67.150002
-8.6582537 -2.6198599 67.150002
-8.5112114 -2.6198599 67.150002
-8.3672838 -2.6208351 67.175003
-8.2201872 -2.6208351 67.175003
-8.0821037 -2.6237609 67.25
-7.9436908 -2.626687 67.325005
-7.8078461 -2.630589 67.425003
-7.6687231 -2.6335149 67.5
-7.5292711 -2.636441 67.575005
-7.392221 -2.640342 67.675003
-7.2600861 -2.6461949 67.825005
-7.1325359 -2.6539979 68.025002
-7.001544 -2.660825 68.200005
-6.8672729 -2.666678 68.350006
-6.729888 -2.671555 68.474998
-6.587152 -2.67448 68.550003
-6.444087 -2.677407 68.625
-6.2983999 -2.679358 68.675003
-6.1480188 -2.679358 68.675003
-5.9976368 -2.679358 68.675003
-5.8408699 -2.6764309 68.600006
-5.6844311 -2.6735051 68.525002
-5.524282 -2.668628 68.400002
-5.3607531 -2.6618011 68.225006
-5.197989 -2.654973 68.050003
-5.037847 -2.649121 67.900002
-4.8801618 -2.644244 67.775002
-4.7247701 -2.640342 67.675003
-4.571507 -2.6374171 67.600006
-4.416935 -2.6335149 67.5
-4.2643828 -2.630589 67.425003
-4.1106329 -2.626687 67.325005
-3.9558489 -2.62181 67.200005
-3.798779 -2.6149831 67.025009
-3.6383891 -2.6052289 66.775009
-3.483016 -2.5984011 66.599998
-3.3296621 -2.5925491 66.450005
-3.170975 -2.58182 66.175003
-2.9677651 -2.5320759 64.900002
-2.823472 -2.5301249 64.850006
-2.680433 -2.52915 64.825005
-2.537503 -2.5281739 64.800003
-2.3946829 -2.527199 64.775002
-2.251102 -2.5252481 64.725006
-2.10937 -2.5252481 64.725006
-1.9645979 -2.521347 64.625
-1.818149 -2.514519 64.450005
-1.673766 -2.5096419 64.325005
-1.5299309 -2.504765 64.200005
-1.388267 -2.502815 64.150009
-1.247308 -2.5018389 64.125
-1.108184 -2.504765 64.200005
-0.968355 -2.506716 64.250008
-0.827986 -2.5076909 64.275002
-0.68723899 -2.5076909 64.275002
-0.54628003 -2.506716 64.250008
-0.40542999 -2.5057409 64.224998
-0.26469001 -2.504765 64.200005
-0.12406 -2.5037899 64.175003
0.016494 -2.5076909 64.275002
0.15932 -2.540854 65.125
0.30482501 -2.565238 65.75
0.45033699 -2.574017 65.975006
0.59728599 -2.5847459 66.25
0.75916499 -2.6432691 67.75
0.90785599 -2.644244 67.775002
1.056657 -2.6452191 67.800003
-11.342892 -2.4812429 67.375008
-11.199511 -2.482163 67.400002
-11.051922 -2.482163 67.400002
-10.908377 -2.483084 67.425003
-10.764723 -2.484005 67.450005
-10.617023 -2.484005 67.450005
-10.457684 -2.4812429 67.375008
-10.291019 -2.47664 67.25
-10.136218 -2.474798 67.200005
-9.9890661 -2.474798 67.200005
-9.8419142 -2.474798 67.200005
-9.6947622 -2.474798 67.200005
-9.5476112 -2.474798 67.200005
-9.3969622 -2.473877 67.175003
-9.2464228 -2.4729569 67.150002
-9.095993 -2.4720359 67.125008
-8.945672 -2.4711151 67.099998
-8.7954617 -2.4701951 67.075005
-8.6485825 -2.4701951 67.075005
-8.4985371 -2.469274 67.050003
-8.3517141 -2.469274 67.050003
-8.2018318 -2.468354 67.025009
-8.0490541 -2.466512 66.975006
-7.8964958 -2.4646699 66.925003
-7.7962661 -2.4794021 67.325005
-7.6602011 -2.483084 67.425003
-7.5209141 -2.485846 67.5
-7.3812981 -2.4886079 67.575005
-7.246706 -2.493212 67.700005
-7.1168079 -2.4996569 67.875
-6.9912782 -2.5079429 68.100006
-6.8572249 -2.5134671 68.25
-6.7200599 -2.51807 68.375
-6.5799451 -2.5217531 68.474998
-6.4346972 -2.5235951 68.525002
-6.2892289 -2.5254359 68.574997
-6.1435418 -2.527277 68.625
-5.991087 -2.526356 68.600006
-5.8387408 -2.5254359 68.574997
-5.6802831 -2.5217531 68.474998
-5.5182252 -2.5162289 68.325005
-5.3528948 -2.508863 68.125
-5.1922598 -2.5033391 67.975006
-5.0341382 -2.4987359 67.850006
-4.8765621 -2.494133 67.725006
-4.7195339 -2.4895289 67.600006
-4.5630531 -2.484926 67.475006
-4.4103909 -2.482163 67.400002
-4.2564769 -2.4784811 67.300003
-4.1030011 -2.474798 67.200005
-3.9426041 -2.466512 66.975006
-3.780359 -2.4563839 66.700005
-3.6247671 -2.449939 66.525002
-3.4699409 -2.443495 66.349998
-3.3196399 -2.4398119 66.25
-3.111078 -2.391016 64.925003
-2.9654779 -2.3882539 64.850006
-2.821295 -2.3864119 64.800003
-2.6773319 -2.3845711 64.75
-2.533587 -2.38273 64.700005
-2.390986 -2.381809 64.675003
-2.2467549 -2.3790469 64.600006
-2.1004081 -2.373523 64.450005
-1.950918 -2.363395 64.175003
-1.805454 -2.356951 64.000008
-1.662708 -2.3532679 63.900005
-1.520399 -2.3495851 63.800003
-1.379069 -2.346823 63.725002
-1.237582 -2.3431399 63.625
-1.0965329 -2.339458 63.525002
-0.95742798 -2.339458 63.525002
-0.82186699 -2.3495851 63.800003
-0.685368 -2.3606329 64.100006
-0.54521698 -2.3615539 64.125
-0.404641 -2.3606329 64.100006
-0.264175 -2.3597131 64.075005
-0.123818 -2.3587921 64.050003
0.01643 -2.3578711 64.025002
0.15656801 -2.356951 64.000008
0.298103 -2.3679991 64.300003
0.445218 -2.4020641 65.225006
0.59458101 -2.4287641 65.949997
0.74319798 -2.442574 66.325005
0.90752101 -2.4950531 67.75
1.056267 -2.4959741 67.775002
1.205122 -2.4968951 67.800003
-11.49469 -2.3347139 67.400002
-11.342892 -2.333848 67.375008
-11.195357 -2.333848 67.375008
-11.043723 -2.332983 67.350006
-10.896243 -2.332983 67.350006
-10.744773 -2.3321159 67.325005
-10.589478 -2.330384 67.275009
-10.42664 -2.32692 67.175003
-10.271892 -2.3251879 67.125008
-10.117362 -2.323456 67.075005
-9.9704847 -2.323456 67.075005
-9.8236055 -2.323456 67.075005
-9.680335 -2.324322 67.099998
-9.5334024 -2.324322 67.099998
-9.3864698 -2.324322 67.099998
-9.2360954 -2.323456 67.075005
-9.0858307 -2.3225901 67.050003
-8.9356747 -2.3217239 67.025009
-8.7856274 -2.320858 67
-8.6356897 -2.3199921 66.975006
-8.4858618 -2.3191259 66.950005
-8.3330297 -2.317394 66.900002
-8.1804161 -2.3156619 66.849998
-8.0160065 -2.310467 66.700005
-7.8581491 -2.307003 66.599998
-7.7152061 -2.307868 66.625008
-7.6431599 -2.330384 67.275009
-7.512558 -2.3355801 67.425003
-7.3703752 -2.337312 67.475006
-7.233325 -2.340776 67.575005
-7.0984588 -2.3451059 67.700005
-6.9707451 -2.3520341 67.900002
-6.84969 -2.3615601 68.175003
-6.7151461 -2.366756 68.325005
-6.57514 -2.3702199 68.425003
-6.4300022 -2.3719521 68.474998
-6.2846441 -2.3736839 68.525002
-6.1390662 -2.375416 68.574997
-5.988904 -2.375416 68.574997
-5.8344841 -2.3736839 68.525002
-5.671988 -2.3684881 68.375
-5.5081301 -2.362426 68.200005
-5.3450379 -2.356364 68.025002
-5.182713 -2.350302 67.850006
-5.0248628 -2.3459721 67.725006
-4.8639612 -2.33991 67.550003
-4.7055712 -2.3347139 67.400002
-4.551219 -2.33125 67.300003
-4.397305 -2.327786 67.200005
-4.2422462 -2.323456 67.075005
-4.0877371 -2.3191259 66.950005
-3.930831 -2.3130651 66.775009
-3.7732739 -2.3061371 66.575005
-3.615232 -2.298342 66.349998
-3.4634039 -2.294013 66.225006
-3.3096189 -2.287951 66.050003
-3.1086819 -2.2472489 64.875
-2.964335 -2.245517 64.825005
-2.8202071 -2.2437849 64.775002
-2.6752639 -2.2411871 64.700005
-2.5316291 -2.239455 64.650002
-2.387289 -2.2368569 64.575005
-2.241538 -2.232527 64.450005
-2.0947051 -2.226465 64.275002
-1.947118 -2.2186711 64.050003
-1.8033381 -2.2143409 63.925003
-1.660105 -2.210011 63.800003
-1.518016 -2.206547 63.700001
-1.376364 -2.203084 63.600002
-1.234664 -2.1987531 63.475002
-1.094375 -2.196156 63.400002
-0.95516801 -2.1952901 63.375004
-0.81607002 -2.1944239 63.350002
-0.67868501 -2.1987531 63.475002
-0.54351699 -2.2143409 63.925003
-0.40385199 -2.216073 63.974998
-0.263659 -2.2152071 63.950001
-0.123576 -2.2143409 63.925003
0.016398 -2.213475 63.900005
0.156323 -2.213475 63.900005
0.296132 -2.2126091 63.875
0.436856 -2.216939 64.000008
0.58353698 -2.242053 64.725006
0.73451298 -2.2706311 65.550003
0.88709402 -2.294013 66.225006
1.050033 -2.333848 67.375008
1.202011 -2.3425081 67.625008
1.350094 -2.3425081 67.625008
-11.498954 -2.188076 67.425003
-11.3471 -2.187264 67.400002
-11.195357 -2.1864531 67.375008
-11.039623 -2.1848309 67.325005
-10.884109 -2.183208 67.275009
-10.728813 -2.181586 67.225006
-10.569801 -2.179152 67.150002
-10.411118 -2.176718 67.075005
-10.256589 -2.1750951 67.025009
-10.102279 -2.1734719 66.975006
-9.9556198 -2.1734719 66.975006
-9.8089609 -2.1734719 66.975006
-9.6659088 -2.174284 67
-9.5191946 -2.174284 67
-9.3724813 -2.174284 67
-9.2257681 -2.174284 67
-9.0756674 -2.1734719 66.975006
-8.9256744 -2.1726611 66.950005
-8.7757921 -2.17185 66.925003
-8.6227951 -2.1702271 66.875008
-8.4731855 -2.169416 66.849998
-8.3174601 -2.1669819 66.775009
-8.1590023 -2.1637371 66.675003
-8.0009823 -2.1604919 66.575005
-7.8463502 -2.1580579 66.5
-7.697835 -2.1572471 66.475006
-7.563633 -2.1604919 66.575005
-7.4874878 -2.180774 67.200005
-7.3567209 -2.185642 67.350006
-7.217268 -2.188076 67.425003
-7.0774879 -2.19051 67.5
-6.942513 -2.194566 67.625008
-6.8270841 -2.2051129 67.950005
-6.7077751 -2.214849 68.25
-6.567934 -2.2180941 68.350006
-6.4253058 -2.2205279 68.425003
-6.2800579 -2.2221501 68.474998
-6.1301141 -2.2221501 68.474998
-5.9365029 -2.205925 67.975006
-5.7514691 -2.192132 67.550003
-5.6097722 -2.194566 67.625008
-5.4657278 -2.1961889 67.675003
-5.3155718 -2.1953771 67.650002
-5.1655259 -2.194566 67.625008
-5.0044589 -2.1888869 67.450005
-4.8477602 -2.1848309 67.325005
-4.6950979 -2.1823969 67.25
-4.5410738 -2.179152 67.150002
-4.3891249 -2.176718 67.075005
-4.2359219 -2.1734719 66.975006
-4.083158 -2.1702271 66.875008
-3.9278879 -2.165359 66.725006
-3.7647729 -2.1556239 66.425003
-3.6097829 -2.149945 66.25
-3.455559 -2.1442659 66.075005
-3.255753 -2.108568 64.975006
-3.10988 -2.1061349 64.900002
-2.964335 -2.1037011 64.825005
-2.819118 -2.1012671 64.75
-2.6742311 -2.0988331 64.675003
-2.529671 -2.0963991 64.600006
-2.384516 -2.093154 64.500008
-2.23719 -2.0874751 64.325005
-2.088187 -2.0793619 64.075005
-1.943318 -2.0744939 63.925003
-1.800517 -2.071249 63.825005
-1.658154 -2.0680029 63.725002
-1.515633 -2.063947 63.600002
-1.3742 -2.0607021 63.500004
-1.233692 -2.0582681 63.425003
-1.0935121 -2.0558341 63.350002
-0.95403701 -2.0542109 63.300003
-0.81542599 -2.0542109 63.300003
-0.67681402 -2.0542109 63.300003
-0.53905302 -2.057456 63.400002
-0.40195799 -2.066381 63.675003
-0.26293799 -2.0696261 63.775002
-0.123286 -2.0696261 63.775002
0.016364999 -2.0696261 63.775002
0.15601701 -2.0696261 63.775002
0.295553 -2.068815 63.750004
0.43497899 -2.0680029 63.725002
0.576325 -2.0744939 63.925003
0.72414798 -2.0972099 64.625
0.86800599 -2.1028891 64.800003
1.015746 -2.1150589 65.175003
1.161574 -2.120738 65.349998
1.3006819 -2.114248 65.150002
1.45996 -2.138587 65.900002
-11.507481 -2.0420849 67.475006
-11.355518 -2.041328 67.450005
-11.199511 -2.0398149 67.400002
-11.043723 -2.0383019 67.350006
-10.884109 -2.036032 67.275009
-10.720834 -2.033005 67.175003
-10.561932 -2.030736 67.099998
-10.399477 -2.027709 67
-10.245112 -2.026196 66.950005
-10.090966 -2.024683 66.900002
-9.9407558 -2.023926 66.875008
-9.7943153 -2.023926 66.875008
-9.6514816 -2.024683 66.900002
-9.5085392 -2.02544 66.925003
-9.36199 -2.02544 66.925003
-9.2154408 -2.02544 66.925003
-9.0655041 -2.024683 66.900002
-8.9156761 -2.023926 66.875008
-8.7626791 -2.022413 66.825005
-8.6131248 -2.021656 66.800003
-8.4573431 -2.019387 66.725006
-8.3018894 -2.017117 66.650002
-8.140646 -2.013334 66.525002
-7.98596 -2.0110641 66.450005
-7.837501 -2.0103071 66.425003
-7.6920462 -2.0103071 66.425003
-7.5494318 -2.0110641 66.450005
-7.4262061 -2.017117 66.650002
-7.3321438 -2.031492 67.125008
-7.1985359 -2.035275 67.25
-7.056519 -2.036788 67.300003
-6.9142809 -2.0383019 67.350006
-6.7693129 -2.039058 67.375008
-6.6168642 -2.037545 67.325005
-6.4598289 -2.034519 67.225006
-6.312623 -2.034519 67.225006
-6.1654172 -2.034519 67.225006
-6.022686 -2.036032 67.275009
-5.8819199 -2.0383019 67.350006
-5.7386971 -2.0398149 67.400002
-5.5952559 -2.041328 67.450005
-5.4495749 -2.0420849 67.475006
-5.2998581 -2.041328 67.450005
-5.1483388 -2.0398149 67.400002
-4.9951849 -2.037545 67.325005
-4.840559 -2.034519 67.225006
-4.688117 -2.032249 67.150002
-4.5360031 -2.029979 67.075005
-4.3842168 -2.027709 67
-4.232759 -2.02544 66.925003
-4.0801039 -2.022413 66.825005
-3.9278879 -2.019387 66.725006
-3.757689 -2.0065241 66.300003
-3.598886 -1.998958 66.050003
-3.4097991 -1.973233 65.200005
-3.2544999 -1.965667 64.950005
-3.10988 -1.964154 64.900002
-2.964335 -1.961884 64.825005
-2.819118 -1.959615 64.75
-2.673197 -1.956588 64.650002
-2.5277131 -1.953562 64.550003
-2.381743 -1.949779 64.425003
-2.2328429 -1.942969 64.200005
-2.084928 -1.93616 63.974998
-1.941038 -1.932377 63.850002
-1.797696 -1.928594 63.725002
-1.655552 -1.925567 63.625
-1.51325 -1.921784 63.500004
-1.372036 -1.918758 63.400002
-1.231747 -1.9164881 63.325005
-1.091786 -1.9142179 63.250004
-0.95290703 -1.913461 63.225002
-0.81445998 -1.913461 63.225002
-0.67628002 -1.9142179 63.250004
-0.538203 -1.915731 63.300003
-0.400065 -1.9180011 63.375004
-0.26190701 -1.922541 63.525002
-0.122948 -1.924811 63.600002
0.016326999 -1.925567 63.625
0.155589 -1.924811 63.600002
0.294626 -1.923297 63.550003
0.43327299 -1.921028 63.475002
0.57159102 -1.918758 63.400002
0.71210301 -1.923297 63.550003
0.865327 -1.955075 64.600006
1.008343 -1.958101 64.700005
1.150465 -1.958858 64.725006
1.293195 -1.960371 64.775002
1.43559 -1.961128 64.800003
-11.368145 -1.895875 67.525009
-11.211973 -1.894471 67.475006
-11.051922 -1.892365 67.400002
-10.888153 -1.889558 67.300003
-10.720834 -1.886048 67.175003
-10.557996 -1.8832411 67.075005
-10.395597 -1.880433 66.975006
-10.23746 -1.878327 66.900002
-10.083425 -1.876923 66.849998
-9.9333229 -1.8762209 66.825005
-9.7869921 -1.8762209 66.825005
-9.644268 -1.876923 66.849998
-9.4978828 -1.876923 66.849998
-9.3514977 -1.876923 66.849998
-9.2051134 -1.876923 66.849998
-9.0553398 -1.8762209 66.825005
-8.9056778 -1.87552 66.800003
-8.7528448 -1.8741159 66.75
-8.6002312 -1.872712 66.700005
-8.4446688 -1.8706059 66.625008
-8.2894344 -1.8685 66.550003
-8.1314688 -1.865693 66.450005
-7.97995 -1.864289 66.400002
-7.8316011 -1.863587 66.375008
-7.6862559 -1.863587 66.375008
-7.5465908 -1.8649909 66.425003
-7.409493 -1.867097 66.5
-7.2884521 -1.873414 66.725006
-7.1691012 -1.880433 66.975006
-7.0355468 -1.883942 67.099998
-6.8911819 -1.884645 67.125008
-6.746706 -1.8853461 67.150002
-6.5996642 -1.8853461 67.150002
-6.4526219 -1.8853461 67.150002
-6.3079281 -1.886048 67.175003
-6.1631241 -1.88675 67.200005
-6.0182099 -1.887452 67.225006
-5.875371 -1.8888561 67.275009
-5.7323108 -1.89026 67.325005
-5.5890341 -1.891663 67.375008
-5.4414992 -1.891663 67.375008
-5.2919998 -1.890962 67.350006
-5.1406999 -1.889558 67.300003
-4.9877648 -1.887452 67.225006
-4.8351579 -1.8853461 67.150002
-4.6846261 -1.883942 67.099998
-4.5326209 -1.881837 67.025009
-4.3809462 -1.8797311 66.950005
-4.229598 -1.877625 66.875008
-4.078578 -1.87552 66.800003
-3.9278879 -1.873414 66.725006
-3.7732739 -1.869202 66.575005
-3.598886 -1.854462 66.050003
-3.4058771 -1.828491 65.125
-3.255753 -1.82428 64.975006
-3.10988 -1.822174 64.900002
-2.964335 -1.820068 64.825005
-2.8180301 -1.817261 64.725006
-2.672163 -1.814453 64.625
-2.5267341 -1.811645 64.525002
-2.379895 -1.807434 64.375
-2.2276261 -1.798309 64.050003
-2.0808539 -1.792693 63.850002
-1.937238 -1.789184 63.725002
-1.794875 -1.786376 63.625
-1.65295 -1.783568 63.525002
-1.510867 -1.780059 63.400002
-1.3704129 -1.777953 63.325005
-1.230288 -1.775848 63.250004
-1.090923 -1.774444 63.200005
-0.95215303 -1.773742 63.175003
-0.81381601 -1.773742 63.175003
-0.67574501 -1.774444 63.200005
-0.53756499 -1.775146 63.225002
-0.399591 -1.777251 63.300003
-0.261289 -1.779357 63.375004
-0.122658 -1.781463 63.450005
0.016287999 -1.7821651 63.475002
0.155222 -1.781463 63.450005
0.29392999 -1.780059 63.400002
0.43224901 -1.777953 63.325005
0.57046402 -1.776549 63.275002
0.70874101 -1.775848 63.250004
0.85059202 -1.782867 63.500004
1.0075639 -1.815155 64.650002
1.15002 -1.816558 64.700005
1.292197 -1.817261 64.725006
1.4344831 -1.8179621 64.75
1.577487 -1.819366 64.800003
-11.38498 -1.750741 67.625008
-11.22859 -1.749446 67.575005
-11.068318 -1.7475049 67.5
-10.904332 -1.744916 67.400002
-10.728813 -1.7403851 67.225006
-10.557996 -1.7365021 67.075005
-10.391717 -1.733266 66.950005
-10.233636 -1.731324 66.875008
-10.079654 -1.7300299 66.825005
-9.9296074 -1.729383 66.800003
-9.7833309 -1.729383 66.800003
-9.6370554 -1.729383 66.800003
-9.4943314 -1.7300299 66.825005
-9.3480005 -1.7300299 66.825005
-9.1982279 -1.729383 66.800003
-9.0485659 -1.728735 66.775009
-8.8990107 -1.728088 66.75
-8.7462883 -1.726794 66.700005
-8.59056 -1.724852 66.625008
-8.4351625 -1.72291 66.550003
-8.2800922 -1.720969 66.475006
-8.125351 -1.719027 66.400002
-7.9739408 -1.717732 66.349998
-7.828651 -1.717732 66.349998
-7.6833611 -1.717732 66.349998
-7.5437508 -1.719027 66.400002
-7.4067078 -1.720969 66.475006
-7.274797 -1.724205 66.599998
-7.1450162 -1.728088 66.75
-7.0145779 -1.731972 66.900002
-6.8783488 -1.73456 67
-6.736659 -1.735855 67.050003
-6.5922928 -1.7365021 67.075005
-6.4478168 -1.737149 67.099998
-6.3032331 -1.737797 67.125008
-6.1585379 -1.738444 67.150002
-6.0137329 -1.739091 67.175003
-5.8688202 -1.739738 67.200005
-5.7237968 -1.7403851 67.225006
-5.576591 -1.7403851 67.225006
-5.4293852 -1.7403851 67.225006
-5.2821779 -1.7403851 67.225006
-5.1311522 -1.739091 67.175003
-4.9822011 -1.738444 67.150002
-4.8315582 -1.737149 67.099998
-4.6811352 -1.735855 67.050003
-4.5292401 -1.7339129 66.975006
-4.3793092 -1.732619 66.925003
-4.2280159 -1.730677 66.849998
-4.0770521 -1.728735 66.775009
-3.9249439 -1.726146 66.675003
-3.7746911 -1.724205 66.599998
-3.613869 -1.717085 66.325005
-3.428103 -1.697021 65.550003
-3.2570059 -1.6827821 65
-3.111078 -1.680841 64.925003
-2.964335 -1.678252 64.825005
-2.816941 -1.675016 64.700005
-2.671129 -1.6724271 64.600006
-2.524776 -1.669191 64.475006
-2.3771219 -1.66466 64.300003
-2.223279 -1.654952 63.925003
-2.076781 -1.649774 63.725002
-1.9334379 -1.646538 63.600002
-1.7913491 -1.643949 63.500004
-1.6496969 -1.64136 63.400002
-1.5090801 -1.639418 63.325005
-1.3682491 -1.636829 63.225002
-1.228829 -1.635535 63.175003
-1.089628 -1.634241 63.125004
-0.95102298 -1.633593 63.100006
-0.81317198 -1.634241 63.125004
-0.67521 -1.6348881 63.150002
-0.53714001 -1.635535 63.175003
-0.39927599 -1.637477 63.250004
-0.26098001 -1.6387711 63.300003
-0.122416 -1.639418 63.325005
0.016256001 -1.640066 63.350002
0.154916 -1.639418 63.325005
0.29335099 -1.638124 63.275002
0.431566 -1.636829 63.225002
0.56978798 -1.636182 63.200005
0.707901 -1.635535 63.175003
0.84623897 -1.635535 63.175003
0.99704403 -1.6562459 63.974998
1.149132 -1.673721 64.650002
1.291698 -1.675016 64.700005
1.433929 -1.675663 64.725006
1.576878 -1.676957 64.775002
1.720046 -1.678252 64.825005
1.864151 -1.6801929 64.900002
-11.397607 -1.6045769 67.700005
-11.245206 -1.603984 67.675003
-11.088816 -1.6027991 67.625008
-10.928599 -1.6010211 67.550003
-10.752753 -1.596874 67.375008
-10.565866 -1.590948 67.125008
-10.395597 -1.587393 66.975006
-10.23746 -1.585616 66.900002
-10.079654 -1.583838 66.825005
-9.9296074 -1.583246 66.800003
-9.7833309 -1.583246 66.800003
-9.6370554 -1.583246 66.800003
-9.4907799 -1.583246 66.800003
-9.3445044 -1.583246 66.800003
-9.1982279 -1.583246 66.800003
-9.0451775 -1.58206 66.75
-8.8923454 -1.580875 66.700005
-8.7397318 -1.57969 66.650002
-8.5841131 -1.577913 66.575005
-8.4319925 -1.576728 66.525002
-8.2769775 -1.57495 66.450005
-8.125351 -1.573765 66.400002
-7.9739408 -1.57258 66.349998
-7.828651 -1.57258 66.349998
-7.6833611 -1.57258 66.349998
-7.5437508 -1.573765 66.400002
-7.4039221 -1.57495 66.450005
-7.2693362 -1.57732 66.550003
-7.1369882 -1.580283 66.675003
-7.001472 -1.582653 66.775009
-6.8655162 -1.585023 66.875008
-6.7241001 -1.586208 66.925003
-6.5824652 -1.587393 66.975006
-6.4406109 -1.588578 67.025009
-6.2961898 -1.5891711 67.050003
-6.151659 -1.589763 67.075005
-6.007019 -1.590356 67.099998
-5.8622699 -1.590948 67.125008
-5.715282 -1.590948 67.125008
-5.568295 -1.590948 67.125008
-5.4192891 -1.590356 67.099998
-5.272356 -1.590356 67.099998
-5.1235142 -1.589763 67.075005
-4.974782 -1.5891711 67.050003
-4.826159 -1.588578 67.025009
-4.6776438 -1.587986 67
-4.5258579 -1.586208 66.925003
-4.3760381 -1.585023 66.875008
-4.224854 -1.583246 66.800003
-4.0739989 -1.581468 66.725006
-3.9205289 -1.578505 66.599998
-3.7690229 -1.576135 66.5
-3.6125081 -1.571395 66.300003
-3.451637 -1.564284 66
-3.2570059 -1.540583 65
-3.1086819 -1.5376199 64.875
-2.963192 -1.535843 64.800003
-2.8158531 -1.5328799 64.675003
-2.6690619 -1.529917 64.550003
-2.522819 -1.526955 64.425003
-2.371577 -1.520437 64.150009
-2.2145841 -1.509179 63.675003
-2.0710771 -1.506216 63.550003
-1.929638 -1.504439 63.475002
-1.787822 -1.502069 63.375004
-1.647095 -1.500291 63.300003
-1.506696 -1.498513 63.225002
-1.366626 -1.496736 63.150002
-1.22737 -1.495551 63.100006
-1.088765 -1.494958 63.075001
-0.95026898 -1.494366 63.050003
-0.812527 -1.494958 63.075001
-0.674676 -1.495551 63.100006
-0.53671497 -1.496143 63.125004
-0.39880201 -1.497328 63.175003
-0.26067001 -1.498513 63.225002
-0.122271 -1.499106 63.250004
0.016231 -1.499106 63.250004
0.154672 -1.498513 63.225002
0.29300299 -1.497921 63.200005
0.431054 -1.496736 63.150002
0.569112 -1.496143 63.125004
0.70705998 -1.495551 63.100006
0.84556901 -1.496143 63.125004
0.98535597 -1.498513 63.225002
1.148243 -1.531103 64.600006
1.2907 -1.532288 64.650002
1.433375 -1.533473 64.700005
1.576269 -1.534658 64.75
1.720046 -1.536435 64.825005
1.864151 -1.538213 64.900002
-11.410234 -1.458084 67.775002
-11.257668 -1.457546 67.75
-11.105213 -1.457009 67.725006
-10.944778 -1.455395 67.650002
-10.780682 -1.453244 67.550003
-10.601283 -1.448941 67.350006
-10.403358 -1.441949 67.025009
-10.241286 -1.439798 66.925003
-10.087195 -1.438722 66.875008
-9.9333229 -1.437646 66.825005
-9.7833309 -1.437109 66.800003
-9.6370554 -1.437109 66.800003
-9.4943314 -1.437646 66.825005
-9.3445044 -1.437109 66.800003
-9.1982279 -1.437109 66.800003
-9.0451775 -1.436033 66.75
-8.8923454 -1.434957 66.700005
-8.736454 -1.433344 66.625008
-8.5841131 -1.432268 66.575005
-8.4288235 -1.430654 66.5
-8.2769775 -1.429579 66.450005
-8.125351 -1.428503 66.400002
-7.9769459 -1.427965 66.375008
-7.828651 -1.4274271 66.349998
-7.6862559 -1.427965 66.375008
-7.5437508 -1.428503 66.400002
-7.4039221 -1.429579 66.450005
-7.2666049 -1.431192 66.525002
-7.1289601 -1.432806 66.599998
-6.993608 -1.434957 66.700005
-6.8552499 -1.436571 66.775009
-6.7165642 -1.438184 66.849998
-6.5750928 -1.43926 66.900002
-6.433403 -1.440336 66.950005
-6.2891469 -1.440874 66.975006
-6.1447811 -1.441411 67
-6.0003052 -1.441949 67.025009
-5.8535371 -1.441949 67.025009
-5.704639 -1.441411 67
-5.5579262 -1.441411 67
-5.409194 -1.440874 66.975006
-5.2625341 -1.440874 66.975006
-5.1158762 -1.440874 66.975006
-4.9692168 -1.440874 66.975006
-4.8207579 -1.440336 66.950005
-4.6724081 -1.439798 66.925003
-4.5224781 -1.438722 66.875008
-4.37113 -1.437109 66.800003
-4.2201099 -1.435495 66.725006
-4.067894 -1.433344 66.625008
-3.9146421 -1.430654 66.5
-3.7605219 -1.4274271 66.349998
-3.6097829 -1.425276 66.25
-3.454252 -1.4209729 66.050003
-3.262017 -1.400535 65.100006
-3.1074841 -1.395157 64.850006
-2.960906 -1.393006 64.75
-2.8136761 -1.390316 64.625
-2.665961 -1.387089 64.475006
-2.5179241 -1.383325 64.300003
-2.3567891 -1.371492 63.750004
-2.209367 -1.366652 63.525002
-2.067004 -1.3645 63.425003
-1.925838 -1.362887 63.350002
-1.785002 -1.3612731 63.275002
-1.644493 -1.35966 63.200005
-1.504313 -1.3580461 63.125004
-1.364462 -1.356432 63.050003
-1.225911 -1.355895 63.025005
-1.087471 -1.3553571 63.000004
-0.949516 -1.3553571 63.000004
-0.81156099 -1.3553571 63.000004
-0.67414099 -1.356432 63.050003
-0.53628999 -1.35697 63.075001
-0.39848599 -1.3580461 63.125004
-0.26046401 -1.359122 63.175003
-0.122175 -1.35966 63.200005
0.016217999 -1.35966 63.200005
0.154549 -1.359122 63.175003
0.29265499 -1.3580461 63.125004
0.430713 -1.3575079 63.100006
0.56866097 -1.35697 63.075001
0.70678002 -1.35697 63.075001
0.84523398 -1.3575079 63.100006
0.98418701 -1.358584 63.150002
1.12958 -1.367189 63.550003
1.2902 -1.390316 64.625
1.432821 -1.391392 64.675003
1.576269 -1.393006 64.75
1.720046 -1.394619 64.825005
1.864151 -1.396233 64.900002
2.0101309 -1.398922 65.025002
2.160795 -1.4043 65.275002
-11.422861 -1.311264 67.850006
-11.270131 -1.310781 67.825005
-11.113413 -1.309814 67.775002
-10.952868 -1.308365 67.700005
-10.792652 -1.306916 67.625008
-10.624893 -1.3045 67.5
-10.430521 -1.298702 67.200005
-10.248938 -1.294354 66.975006
-10.090966 -1.292904 66.900002
-9.9370394 -1.2919379 66.849998
-9.7906542 -1.2919379 66.849998
-9.644268 -1.2919379 66.849998
-9.4978828 -1.2919379 66.849998
-9.3514977 -1.2919379 66.849998
-9.2016716 -1.291455 66.825005
-9.0485659 -1.290488 66.775009
-8.8956795 -1.2895221 66.725006
-8.7397318 -1.2880729 66.650002
-8.5841131 -1.286623 66.575005
-8.4319925 -1.285657 66.525002
-8.2800922 -1.284691 66.475006
-8.1284094 -1.283724 66.425003
-7.97995 -1.283241 66.400002
-7.8345509 -1.283241 66.400002
-7.6891499 -1.283241 66.400002
-7.5465908 -1.283724 66.425003
-7.4067078 -1.284691 66.475006
-7.2666049 -1.285657 66.525002
-7.1262841 -1.286623 66.575005
-6.985744 -1.28759 66.625008
-6.8475509 -1.289039 66.700005
-6.7065172 -1.290005 66.75
-6.5677218 -1.291455 66.825005
-6.4237938 -1.2919379 66.849998
-6.282104 -1.292904 66.900002
-6.1356101 -1.292904 66.900002
-5.991353 -1.2933871 66.925003
-5.8426199 -1.292904 66.900002
-5.696126 -1.292904 66.900002
-5.5475569 -1.292421 66.875008
-5.399097 -1.2919379 66.849998
-5.2527132 -1.2919379 66.849998
-5.106328 -1.2919379 66.849998
-4.9617972 -1.292421 66.875008
-4.8135571 -1.2919379 66.849998
-4.667172 -1.2919379 66.849998
-4.5157151 -1.290488 66.775009
-4.3645859 -1.289039 66.700005
-4.2106228 -1.286623 66.575005
-4.0587349 -1.284691 66.475006
-3.907284 -1.282758 66.375008
-3.7562709 -1.280825 66.275002
-3.607059 -1.279376 66.200005
-3.455559 -1.27696 66.075005
-3.2833121 -1.266331 65.525002
-3.1086819 -1.253769 64.875
-2.9563329 -1.249421 64.650002
-2.808234 -1.2465219 64.500008
-2.658725 -1.2426569 64.300003
-2.5042181 -1.235893 63.950001
-2.349395 -1.2281621 63.550003
-2.206758 -1.22623 63.450005
-2.0653739 -1.22478 63.375004
-1.923558 -1.2228481 63.275002
-1.782181 -1.220915 63.175003
-1.641891 -1.219466 63.100006
-1.50193 -1.218016 63.025005
-1.362839 -1.21705 62.975002
-1.224452 -1.216567 62.950005
-1.086176 -1.216084 62.925003
-0.94838601 -1.216084 62.925003
-0.81091702 -1.216567 62.950005
-0.67333901 -1.21705 62.975002
-0.53586501 -1.218016 63.025005
-0.39817101 -1.218982 63.075001
-0.26015499 -1.219466 63.100006
-0.12203 -1.219949 63.125004
0.016205 -1.220432 63.150002
0.15442701 -1.219949 63.125004
0.292539 -1.219466 63.100006
0.430372 -1.2184989 63.050003
0.56843603 -1.2184989 63.050003
0.70678002 -1.218982 63.075001
0.84523398 -1.219466 63.100006
0.98457599 -1.220915 63.175003
1.12558 -1.223814 63.325005
1.26774 -1.227196 63.500004
1.432267 -1.249421 64.650002
1.576269 -1.251354 64.75
1.720046 -1.252803 64.825005
1.864869 -1.254735 64.925003
2.012449 -1.258118 65.100006
2.162451 -1.262466 65.325005
-11.42707 -1.163258 67.875
-11.274285 -1.16283 67.850006
-11.117512 -1.161973 67.800003
-10.956912 -1.160688 67.725006
-10.796641 -1.159402 67.650002
-10.624893 -1.156831 67.5
-10.430521 -1.15169 67.200005
-10.256589 -1.1486911 67.025009
-10.098508 -1.147405 66.950005
-9.9444714 -1.146549 66.900002
-9.7943153 -1.14612 66.875008
-9.6514816 -1.146549 66.900002
-9.5049877 -1.146549 66.900002
-9.3584929 -1.146549 66.900002
-9.2085562 -1.14612 66.875008
-9.0553398 -1.145263 66.825005
-8.9023447 -1.144406 66.775009
-8.7462883 -1.143121 66.700005
-8.59056 -1.141835 66.625008
-8.4383297 -1.1409791 66.575005
-8.2863197 -1.1401221 66.525002
-8.1375875 -1.139693 66.5
-7.9889641 -1.1392649 66.475006
-7.8404508 -1.138836 66.450005
-7.694941 -1.138836 66.450005
-7.5494318 -1.138836 66.450005
-7.4067078 -1.1392649 66.475006
-7.2638741 -1.139693 66.5
-7.1236081 -1.14055 66.550003
-6.9831209 -1.141407 66.599998
-6.8398509 -1.141835 66.625008
-6.6989818 -1.142692 66.675003
-6.5578952 -1.143549 66.725006
-6.4165869 -1.144406 66.775009
-6.2727141 -1.144835 66.800003
-6.1287308 -1.145263 66.825005
-5.9823999 -1.145263 66.825005
-5.8338871 -1.144835 66.800003
-5.685483 -1.144406 66.775009
-5.5371871 -1.143978 66.75
-5.3910208 -1.143978 66.75
-5.2448549 -1.143978 66.75
-5.0986891 -1.143978 66.75
-4.9543781 -1.144406 66.775009
-4.806356 -1.143978 66.75
-4.6584449 -1.143549 66.725006
-4.5072608 -1.142264 66.650002
-4.3547711 -1.14055 66.550003
-4.2027178 -1.138836 66.450005
-4.052629 -1.137551 66.375008
-3.902869 -1.136266 66.300003
-3.753438 -1.13498 66.225006
-3.6043341 -1.133695 66.150002
-3.456867 -1.132838 66.099998
-3.290828 -1.125554 65.675003
-3.10988 -1.112272 64.900002
-2.9494729 -1.105417 64.500008
-2.7984381 -1.101561 64.275002
-2.649421 -1.098133 64.075005
-2.4944279 -1.091706 63.700001
-2.349395 -1.0891351 63.550003
-2.206758 -1.087422 63.450005
-2.063745 -1.085279 63.325005
-1.922038 -1.083565 63.225002
-1.7807699 -1.081852 63.125004
-1.64059 -1.080566 63.050003
-1.500739 -1.079281 62.975002
-1.361757 -1.078424 62.925003
-1.222994 -1.077567 62.875004
-1.085313 -1.077567 62.875004
-0.94763201 -1.077567 62.875004
-0.80995101 -1.077567 62.875004
-0.67253703 -1.0779949 62.900002
-0.535227 -1.0788521 62.950005
-0.397697 -1.0797091 63.000004
-0.259949 -1.080566 63.050003
-0.121933 -1.080995 63.075001
0.016186001 -1.080995 63.075001
0.154305 -1.080995 63.075001
0.292308 -1.080566 63.050003
0.43020099 -1.080138 63.025005
0.56821102 -1.080138 63.025005
0.70649999 -1.080566 63.050003
0.84523398 -1.081423 63.100006
0.98496598 -1.083137 63.200005
1.12558 -1.085279 63.325005
1.266742 -1.087422 63.450005
1.4078979 -1.0891351 63.550003
1.576269 -1.109701 64.75
1.72071 -1.111415 64.850006
1.8655879 -1.113129 64.950005
2.013222 -1.116128 65.125
2.161623 -1.119127 65.300003
2.3099079 -1.121698 65.449997
-11.42707 -1.01477 67.875
-11.274285 -1.014396 67.850006
-11.121611 -1.014022 67.825005
-10.960957 -1.0129009 67.75
-10.792652 -1.011032 67.625008
-10.613088 -1.008042 67.425003
-10.422759 -1.00393 67.150002
-10.256589 -1.002062 67.025009
-10.102279 -1.001314 66.975006
-9.9519043 -1.00094 66.950005
-9.8052998 -1.00094 66.950005
-9.662303 -1.001314 66.975006
-9.5156431 -1.001314 66.975006
-9.3689842 -1.001314 66.975006
-9.2188845 -1.00094 66.950005
-9.0655041 -1.000193 66.900002
-8.912343 -0.99944502 66.849998
-8.7561235 -0.99832398 66.775009
-8.6034546 -0.997576 66.725006
-8.4478369 -0.99645501 66.650002
-8.2987766 -0.99608099 66.625008
-8.1467648 -0.99533403 66.575005
-7.9979782 -0.99496001 66.550003
-7.849299 -0.99458599 66.525002
-7.7007308 -0.99421197 66.5
-7.5551109 -0.99421197 66.5
-7.409493 -0.99421197 66.5
-7.2666049 -0.99458599 66.525002
-7.1209311 -0.99458599 66.525002
-6.97788 -0.99496001 66.550003
-6.8347182 -0.99533403 66.575005
-6.6914458 -0.99570799 66.599998
-6.5505228 -0.99645501 66.650002
-6.4069781 -0.99682897 66.675003
-6.2633238 -0.99720299 66.700005
-6.1195598 -0.997576 66.725006
-5.9734478 -0.997576 66.725006
-5.8251529 -0.99720299 66.700005
-5.6769681 -0.99682897 66.675003
-5.528892 -0.99645501 66.650002
-5.3829451 -0.99645501 66.650002
-5.2369981 -0.99645501 66.650002
-5.0910511 -0.99645501 66.650002
-4.9451041 -0.99645501 66.650002
-4.7991562 -0.99645501 66.650002
-4.6497178 -0.99570799 66.599998
-4.4988079 -0.99458599 66.525002
-4.348228 -0.99346501 66.450005
-4.1979742 -0.99234402 66.375008
-4.0480499 -0.99122202 66.300003
-3.8999259 -0.990475 66.25
-3.750603 -0.98935401 66.175003
-3.602972 -0.98860598 66.125008
-3.455559 -0.98785901 66.075005
-3.28707 -0.980757 65.599998
-3.1014941 -0.96767497 64.725006
-2.9437571 -0.96244299 64.375
-2.7940841 -0.95945197 64.175003
-2.644253 -0.95608902 63.950001
-2.4963861 -0.953098 63.750004
-2.351244 -0.95085597 63.600002
-2.206758 -0.94861299 63.450005
-2.063745 -0.94674498 63.325005
-1.921278 -0.94487602 63.200005
-1.7800649 -0.94338101 63.100006
-1.639289 -0.94188601 63.000004
-1.499547 -0.94076401 62.925003
-1.360134 -0.93964303 62.850006
-1.222021 -0.93926901 62.825001
-1.084018 -0.93889499 62.800003
-0.94650197 -0.93889499 62.800003
-0.80898499 -0.93889499 62.800003
-0.67173499 -0.93926901 62.825001
-0.53458899 -0.94001698 62.875004
-0.39722401 -0.94076401 62.925003
-0.25964001 -0.94151199 62.975002
-0.121788 -0.94188601 63.000004
0.016173 -0.94225901 63.025005
0.154182 -0.94225901 63.025005
0.29219201 -0.94225901 63.025005
0.43002999 -0.94188601 63.000004
0.567985 -0.94188601 63.000004
0.70649999 -0.94263297 63.050003
0.84556901 -0.94375402 63.125004
0.98496598 -0.94487602 63.200005
1.12558 -0.94674498 63.325005
1.266243 -0.94823998 63.425003
1.40679 -0.94936103 63.500004
1.547665 -0.95048201 63.575005
1.720046 -0.96916997 64.825005
1.8663059 -0.97141302 64.975006
2.013222 -0.97365499 65.125
2.161623 -0.97627199 65.300003
2.309026 -0.97814101 65.425003
2.456039 -0.97963601 65.525002
-11.270131 -0.86564302 67.825005
-11.117512 -0.86532402 67.800003
-10.952868 -0.86404699 67.700005
-10.780682 -0.86213303 67.550003
-10.585542 -0.85830402 67.25
-10.411118 -0.856071 67.075005
-10.256589 -0.85543197 67.025009
-10.10605 -0.85511303 67
-9.9593353 -0.85511303 67
-9.8162842 -0.85543197 67.025009
-9.6731224 -0.85575098 67.050003
-9.529851 -0.856071 67.075005
-9.3829727 -0.856071 67.075005
-9.2326527 -0.85575098 67.050003
-9.0790539 -0.85511303 67
-8.9256744 -0.85447502 66.950005
-8.7725143 -0.85383701 66.900002
-8.6163483 -0.85288 66.825005
-8.4636803 -0.85224199 66.775009
-8.3112326 -0.85160398 66.725006
-8.1590023 -0.85096502 66.675003
-8.0099955 -0.85064602 66.650002
-7.8581491 -0.85000801 66.599998
-7.709415 -0.84968901 66.575005
-7.560792 -0.84937 66.550003
-7.4122791 -0.849051 66.525002
-7.2666049 -0.849051 66.525002
-7.1209311 -0.849051 66.525002
-6.9752579 -0.849051 66.525002
-6.8321509 -0.84937 66.550003
-6.6864228 -0.84937 66.550003
-6.5431519 -0.84968901 66.575005
-6.3997712 -0.85000801 66.599998
-6.253933 -0.85000801 66.599998
-6.1103892 -0.85032701 66.625008
-5.9644961 -0.85032701 66.625008
-5.818603 -0.85032701 66.625008
-5.6705818 -0.85000801 66.599998
-5.5226712 -0.84968901 66.575005
-5.3768878 -0.84968901 66.575005
-5.2311039 -0.84968901 66.575005
-5.0853209 -0.84968901 66.575005
-4.9376841 -0.84937 66.550003
-4.791955 -0.84937 66.550003
-4.642736 -0.84873199 66.5
-4.4920449 -0.84777498 66.425003
-4.3433199 -0.84713602 66.375008
-4.1932311 -0.84617901 66.300003
-4.0449972 -0.845541 66.25
-3.8969829 -0.84490299 66.200005
-3.750603 -0.84458399 66.175003
-3.602972 -0.84394598 66.125008
-3.456867 -0.84362698 66.099998
-3.2582591 -0.829907 65.025002
-3.1014941 -0.826078 64.725006
-2.9483299 -0.822887 64.475006
-2.7962611 -0.81969601 64.224998
-2.6463201 -0.81682497 64.000008
-2.4993229 -0.81459099 63.825005
-2.353092 -0.81235802 63.650002
-2.208498 -0.81044298 63.500004
-2.0645599 -0.80852902 63.350002
-1.922038 -0.80693299 63.225002
-1.7800649 -0.80533803 63.100006
-1.638638 -0.803743 62.975002
-1.498951 -0.80278498 62.900002
-1.359593 -0.80182803 62.825001
-1.221049 -0.80119002 62.775005
-1.082724 -0.80055201 62.725002
-0.94537097 -0.80055201 62.725002
-0.80801898 -0.80055201 62.725002
-0.67066598 -0.80055201 62.725002
-0.53373897 -0.80119002 62.775005
-0.396593 -0.80182803 62.825001
-0.25922701 -0.80246598 62.875004
-0.121643 -0.803105 62.925003
0.016154001 -0.803424 62.950005
0.153999 -0.803424 62.950005
0.29196 -0.803743 62.975002
0.42986 -0.803743 62.975002
0.56775999 -0.803743 62.975002
0.70621997 -0.80438101 63.025005
0.84523398 -0.80533803 63.100006
0.98496598 -0.80661398 63.200005
1.125136 -0.80789101 63.300003
1.265744 -0.80916703 63.400002
1.4062361 -0.81012398 63.475002
1.546448 -0.81076199 63.525002
1.720046 -0.82735401 64.825005
1.8655879 -0.82894897 64.950005
2.012449 -0.83086401 65.100006
2.1599679 -0.83277798 65.25
2.307261 -0.83437401 65.375
2.454165 -0.83565003 65.475006
2.5995231 -0.83628798 65.525002
-11.261823 -0.71673501 67.775002
-11.109313 -0.71647 67.75
-10.940734 -0.71514797 67.625008
-10.740783 -0.71171099 67.300003
-10.561932 -0.70959598 67.099998
-10.407238 -0.709068 67.050003
-10.256589 -0.708803 67.025009
-10.109821 -0.708803 67.025009
-9.9704847 -0.70933199 67.075005
-9.8309298 -0.70986098 67.125008
-9.6911554 -0.71038902 67.175003
-9.5511627 -0.71091801 67.225006
-9.4074535 -0.71118301 67.25
-9.2567501 -0.71091801 67.225006
-9.0993795 -0.71012503 67.150002
-8.9423399 -0.70933199 67.075005
-8.7889061 -0.708803 67.025009
-8.6356897 -0.70827401 66.975006
-8.4826927 -0.70774603 66.925003
-8.329916 -0.70721698 66.875008
-8.1773567 -0.70668799 66.825005
-8.0250177 -0.706159 66.775009
-7.8699479 -0.70536602 66.700005
-7.718101 -0.70483798 66.650002
-7.566473 -0.70430899 66.599998
-7.41785 -0.70404398 66.575005
-7.2693362 -0.70378 66.550003
-7.1236081 -0.70378 66.550003
-6.9752579 -0.70351601 66.525002
-6.8295851 -0.70351601 66.525002
-6.6839108 -0.70351601 66.525002
-6.538238 -0.70351601 66.525002
-6.3925638 -0.70351601 66.525002
-6.249238 -0.70378 66.550003
-6.1035099 -0.70378 66.550003
-5.9600191 -0.70404398 66.575005
-5.8142371 -0.70404398 66.575005
-5.6663251 -0.70378 66.550003
-5.5185218 -0.70351601 66.525002
-5.372849 -0.70351601 66.525002
-5.2252111 -0.703251 66.5
-5.077683 -0.70298702 66.475006
-4.9321189 -0.70298702 66.475006
-4.7847552 -0.70272201 66.450005
-4.6357551 -0.70219398 66.400002
-4.4886651 -0.70192897 66.375008
-4.3400478 -0.701401 66.325005
-4.191649 -0.700872 66.275002
-4.0434709 -0.70034301 66.225006
-3.8969829 -0.70007902 66.200005
-3.750603 -0.69981402 66.175003
-3.6043341 -0.69954997 66.150002
-3.456867 -0.69902098 66.099998
-3.2544999 -0.68686002 64.950005
-3.106286 -0.68553799 64.825005
-2.9597621 -0.68448001 64.725006
-2.808234 -0.68210101 64.500008
-2.652523 -0.67839998 64.150009
-2.50226 -0.67575598 63.900005
-2.355865 -0.67390501 63.725002
-2.2111061 -0.67231899 63.575005
-2.067004 -0.67073202 63.425003
-1.923558 -0.669146 63.275002
-1.7800649 -0.66729599 63.100006
-1.638638 -0.66597402 62.975002
-1.498356 -0.66491598 62.875004
-1.3590519 -0.664123 62.800003
-1.220076 -0.66333002 62.725002
-1.081861 -0.66280103 62.675007
-0.94424099 -0.66253698 62.650002
-0.80673099 -0.66227198 62.625004
-0.66959703 -0.66227198 62.625004
-0.53288901 -0.66280103 62.675007
-0.39580399 -0.66306502 62.700005
-0.25881499 -0.66385901 62.775005
-0.12145 -0.66438699 62.825001
0.016128 -0.66465199 62.850006
0.153815 -0.66491598 62.875004
0.291612 -0.66518098 62.900002
0.429519 -0.66544503 62.925003
0.56753403 -0.66570902 62.950005
0.70594001 -0.66623801 63.000004
0.84456402 -0.666767 63.050003
0.98418701 -0.66782397 63.150002
1.124247 -0.66888201 63.250004
1.264746 -0.66993898 63.350002
1.405129 -0.67073202 63.425003
1.545231 -0.67126101 63.475002
1.716729 -0.68421602 64.700005
1.864151 -0.68633097 64.900002
2.0101309 -0.68765301 65.025002
2.158313 -0.68950301 65.200005
2.3046141 -0.690561 65.300003
2.4504161 -0.69135398 65.375
2.5955551 -0.69188303 65.425003
2.7409129 -0.69241202 65.475006
-11.253515 -0.56804502 67.725006
-11.097013 -0.567626 67.675003
-10.908377 -0.56552899 67.425003
-10.708863 -0.56280297 67.099998
-10.550126 -0.56217402 67.025009
-10.399477 -0.56196398 67
-10.252764 -0.56196398 67
-10.113592 -0.56238401 67.050003
-9.9779177 -0.56301302 67.125008
-9.8419142 -0.56364202 67.200005
-9.7091894 -0.56448102 67.300003
-9.568923 -0.56489998 67.350006
-9.4284372 -0.565319 67.400002
-9.2808466 -0.565319 67.400002
-9.126483 -0.56489998 67.350006
-8.9656706 -0.56406099 67.25
-8.8085737 -0.56343198 67.175003
-8.6550303 -0.56301302 67.125008
-8.5017052 -0.56259298 67.075005
-8.3485994 -0.56217402 67.025009
-8.195713 -0.561755 66.975006
-8.040041 -0.56112599 66.900002
-7.8817468 -0.560287 66.800003
-7.7267861 -0.55965799 66.725006
-7.5749931 -0.55923802 66.675003
-7.4234209 -0.558819 66.625008
-7.274797 -0.55860901 66.599998
-7.1262841 -0.55839998 66.575005
-6.97788 -0.55818999 66.550003
-6.8295851 -0.55798 66.525002
-6.6813989 -0.55777103 66.5
-6.53578 -0.55777103 66.5
-6.390162 -0.55777103 66.5
-6.2445431 -0.55777103 66.5
-6.1012168 -0.55798 66.525002
-5.955543 -0.55798 66.525002
-5.8098698 -0.55798 66.525002
-5.664196 -0.55798 66.525002
-5.516449 -0.55777103 66.5
-5.3688111 -0.55756098 66.475006
-5.2193179 -0.55714101 66.425003
-5.0719538 -0.55693197 66.400002
-4.9265552 -0.55693197 66.400002
-4.779355 -0.55672199 66.375008
-4.6322641 -0.556512 66.349998
-4.4852829 -0.55630302 66.325005
-4.3384118 -0.55609298 66.300003
-4.1900678 -0.55567402 66.25
-4.0434709 -0.55546403 66.225006
-3.8969829 -0.55525398 66.200005
-3.750603 -0.55504501 66.175003
-3.6043341 -0.55483502 66.150002
-3.4032619 -0.54581797 65.075005
-3.255753 -0.54497999 64.975006
-3.111078 -0.54456002 64.925003
-2.964335 -0.54372102 64.825005
-2.8158531 -0.542463 64.675003
-2.666995 -0.540995 64.500008
-2.5130291 -0.53827 64.175003
-2.3595619 -0.53533399 63.825005
-2.2137139 -0.53386599 63.650002
-2.0686331 -0.53239799 63.475002
-1.924318 -0.53092998 63.300003
-1.7807699 -0.52946299 63.125004
-1.638638 -0.52820498 62.975002
-1.498356 -0.52736598 62.875004
-1.358511 -0.52652699 62.775005
-1.2191041 -0.52568799 62.675007
-1.080997 -0.52526897 62.625004
-0.94310999 -0.524849 62.575001
-0.80544198 -0.52442998 62.525005
-0.66852802 -0.52442998 62.525005
-0.53161299 -0.52442998 62.525005
-0.39501399 -0.524849 62.575001
-0.25819701 -0.52526897 62.625004
-0.121208 -0.52589798 62.700005
0.016101999 -0.526317 62.750008
0.153632 -0.52673697 62.800003
0.29126501 -0.52694601 62.825001
0.42900699 -0.527156 62.850006
0.56708401 -0.52757502 62.900002
0.70509899 -0.527785 62.925003
0.843894 -0.52841401 63.000004
0.98301798 -0.52904302 63.075001
1.122914 -0.52988201 63.175003
1.263248 -0.53072101 63.275002
1.4034671 -0.53135002 63.350002
1.5434051 -0.53176898 63.400002
1.688206 -0.533656 63.625
1.858407 -0.54267299 64.700005
2.0054941 -0.54414099 64.875
2.154175 -0.54581797 65.075005
2.301085 -0.54686701 65.200005
2.4466679 -0.54749602 65.275002
2.590596 -0.54770601 65.300003
2.733587 -0.54770601 65.300003
-11.241053 -0.41942 67.650002
-11.072419 -0.41864499 67.525009
-10.871975 -0.41663 67.200005
-10.700885 -0.41569999 67.050003
-10.542255 -0.41523501 66.975006
-10.391717 -0.41508001 66.950005
-10.252764 -0.41539001 67
-10.117362 -0.41585499 67.075005
-9.9853497 -0.416475 67.175003
-9.8565598 -0.41725001 67.300003
-9.7236156 -0.41786999 67.400002
-9.5831308 -0.41817999 67.450005
-9.4389286 -0.41833499 67.475006
-9.2946167 -0.41848999 67.5
-9.1434212 -0.41833499 67.475006
-8.9856682 -0.41786999 67.400002
-8.8282433 -0.41740501 67.325005
-8.6743717 -0.41709501 67.275009
-8.5175505 -0.41663 67.200005
-8.3641701 -0.41632 67.150002
-8.2079496 -0.41585499 67.075005
-8.0520582 -0.41539001 67
-7.8935461 -0.41477001 66.900002
-7.7383661 -0.414305 66.825005
-7.5806751 -0.41368499 66.725006
-7.431777 -0.41352999 66.700005
-7.2802591 -0.41321999 66.650002
-7.1343122 -0.41321999 66.650002
-6.9831209 -0.41291001 66.599998
-6.8347182 -0.41275501 66.575005
-6.6839108 -0.41244501 66.525002
-6.538238 -0.41244501 66.525002
