ply
format ascii 1.0
comment PCL generated
element vertex 1584
property float x
property float y
property float z
element face 0
element camera 0
property float view_px
property float view_py
property float view_pz
property float x_axisx
property float x_axisy
property float x_axisz
property float y_axisx
property float y_axisy
property float y_axisz
property float z_axisx
property float z_axisy
property float z_axisz
property float focal
property float scalex
property float scaley
property float centerx
property float centery
property int viewportx
property int viewporty
property float k1
property float k2
end_header
-4.379807 8.0544796 69.250008
-4.2220612 8.0428486 69.150002
-4.0647531 8.0312176 69.050003
-3.907882 8.0195866 68.950005
-3.7282929 7.9585242 68.425003
-3.5640769 7.926538 68.150002
-3.4123399 7.920723 68.100006
-3.2608221 7.914907 68.050003
-3.111809 7.914907 68.050003
-2.9638841 7.9178152 68.075005
-2.816884 7.9236312 68.125
-2.670644 7.932354 68.200005
-2.524075 7.9410782 68.275002
-2.376308 7.9468932 68.325005
-2.2291369 7.955616 68.400002
-2.0816381 7.9643388 68.474998
-1.934516 7.9759698 68.574997
-1.786955 7.9876008 68.675003
-1.640148 8.0050478 68.824997
-1.4932261 8.025403 69.000008
-1.345536 8.0457573 69.175003
-1.196218 8.0602951 69.300003
-1.046351 8.0748339 69.425003
-0.89593798 8.0893726 69.550003
-5.3393021 8.283 69.900009
-5.1788182 8.2711506 69.800003
-5.016973 8.2563381 69.675003
-4.8556738 8.2415257 69.550003
-4.6966138 8.2296762 69.450005
-4.536356 8.2148638 69.325005
-4.3782258 8.2030144 69.224998
-4.2205348 8.191164 69.125
-4.063282 8.1793146 69.025002
-3.906466 8.1674652 68.925003
-3.7432771 8.1408024 68.700005
-3.5666921 8.0815535 68.200005
-3.4123399 8.0697041 68.100006
-3.2620201 8.066741 68.075005
-3.111809 8.0637789 68.050003
-2.9638841 8.066741 68.075005
-2.816884 8.0726662 68.125
-2.670644 8.0815535 68.200005
-2.524075 8.0904408 68.275002
-2.377178 8.099329 68.350006
-2.2299521 8.1082153 68.425003
-2.0823979 8.1171036 68.500008
-1.935221 8.128953 68.600006
-1.786955 8.1378403 68.675003
-1.640148 8.1556139 68.824997
-1.4932261 8.1763535 69.000008
-1.346022 8.2000513 69.200005
-1.197081 8.2178268 69.350006
-1.046728 8.2296762 69.450005
-5.496294 8.4419537 69.950005
-5.3373909 8.4329014 69.875
-5.175108 8.4178162 69.750008
-5.015172 8.4057474 69.650002
-4.853929 8.3906622 69.525002
-4.693233 8.375576 69.400002
-4.5347199 8.3635073 69.300003
-4.3750629 8.3484221 69.175003
-4.2174821 8.3363543 69.075005
-4.060338 8.3242846 68.974998
-3.902215 8.3091993 68.850006
-3.741915 8.2880793 68.675003
-3.5719221 8.2428226 68.300003
-3.4160981 8.2277374 68.175003
-3.2632179 8.2186852 68.100006
-3.112952 8.2156677 68.075005
-2.9638841 8.2156677 68.075005
-2.816884 8.2217026 68.125
-2.670644 8.2307539 68.200005
-2.524075 8.2398052 68.275002
-2.377178 8.2488565 68.350006
-2.230767 8.2609253 68.450005
-2.083158 8.2699766 68.525002
-1.935926 8.2820454 68.625
-1.787606 8.2910967 68.700005
-1.639553 8.3031635 68.800003
-1.493767 8.3303194 69.025002
-1.34894 8.3695421 69.350006
-1.1992379 8.3846283 69.474998
-5.4943299 8.5919094 69.925003
-5.3335719 8.5796223 69.825005
-5.1732531 8.5673351 69.724998
-5.0115719 8.5519762 69.600006
-4.8504381 8.5366163 69.474998
-4.6898508 8.5212574 69.350006
-4.5298119 8.5058985 69.224998
-4.371901 8.4936113 69.125
-4.2144289 8.4813232 69.025002
-4.057395 8.4690371 68.925003
-3.8993809 8.4536772 68.800003
-3.7391911 8.4321747 68.625
-3.5771511 8.4045277 68.400002
-3.4198561 8.386096 68.25
-3.2656131 8.3738098 68.150002
-3.115238 8.370738 68.125
-2.9660611 8.370738 68.125
-2.8179171 8.3738098 68.150002
-2.671623 8.3830252 68.225006
-2.5249989 8.3922405 68.300003
-2.378047 8.4014568 68.375
-2.2315819 8.413743 68.474998
-2.0839181 8.4229584 68.550003
-1.936631 8.4352465 68.650002
-1.788256 8.4444609 68.724998
-1.640148 8.456749 68.824997
-1.501341 8.5243292 69.375
-1.352344 8.5427608 69.525002
-5.6514859 8.7511349 69.974998
-5.4904008 8.7386293 69.875
-5.3316631 8.72925 69.800003
-5.1713991 8.7167444 69.700005
-5.0097718 8.7011118 69.575005
-4.8469472 8.6823521 69.425003
-4.68647 8.6667194 69.300003
-4.5265412 8.6510878 69.175003
-4.3687391 8.6385813 69.075005
-4.2113762 8.6260748 68.974998
-4.054451 8.6135683 68.875
-3.8965471 8.5979366 68.750008
-3.737828 8.5791779 68.600006
-3.579766 8.5604181 68.450005
-3.423614 8.5447845 68.325005
-3.269207 8.532279 68.225006
-3.1175251 8.5260267 68.175003
-2.9682381 8.5260267 68.175003
-2.8199849 8.5291529 68.200005
-2.672601 8.5354052 68.25
-2.525923 8.5447845 68.325005
-2.379786 8.557292 68.425003
-2.2323971 8.5666714 68.500008
-2.0846779 8.5760508 68.574997
-1.937337 8.5885572 68.675003
-1.788256 8.5948095 68.724998
-1.640744 8.6104422 68.850006
-1.50621 8.7042379 69.600006
-1.3542891 8.707365 69.625
-5.649467 8.9010382 69.950005
-5.4884362 8.8883133 69.850006
-5.3297529 8.8787699 69.775002
-5.1695442 8.866045 69.675003
-5.0079708 8.8501387 69.550003
-4.845201 8.8310509 69.400002
-4.6830888 8.811964 69.250008
-4.5232692 8.7960577 69.125
-4.3655772 8.7833328 69.025002
-4.208324 8.7706079 68.925003
-4.051507 8.7578821 68.824997
-3.8951299 8.7451582 68.724998
-3.737828 8.7292519 68.600006
-3.581074 8.7133455 68.474998
-3.4261191 8.7006207 68.375
-3.2716031 8.6878967 68.275002
-3.1198111 8.6815338 68.225006
-2.969326 8.6783524 68.200005
-2.8210189 8.6815338 68.225006
-2.6745601 8.6910772 68.300003
-2.5277719 8.7006207 68.375
-2.380656 8.710165 68.450005
-2.234026 8.7228899 68.550003
-2.0861981 8.7324333 68.625
-1.938042 8.7419767 68.700005
-1.7889071 8.7483397 68.750008
-1.64551 8.7865143 69.050003
-1.507833 8.866045 69.675003
-1.356234 8.872407 69.724998
-5.647449 9.0508299 69.925003
-5.4884362 9.0411205 69.850006
-5.3278441 9.0281782 69.750008
-5.1676879 9.015234 69.650002
-5.0061712 8.9990549 69.525002
-4.8434558 8.9796391 69.375
-4.6813979 8.9602242 69.224998
-4.5216331 8.9440451 69.100006
-4.363996 8.9311008 69.000008
-4.2067971 8.9181576 68.900002
-4.051507 8.9084492 68.824997
-3.8951299 8.8955059 68.724998
-3.7391911 8.8825617 68.625
-3.583689 8.8696194 68.525002
-3.4286251 8.8566761 68.425003
-3.273999 8.8437309 68.325005
-3.122098 8.8372593 68.275002
-2.971503 8.8340235 68.25
-2.823086 8.8372593 68.275002
-2.675539 8.8437309 68.325005
-2.5286961 8.8534393 68.400002
-2.382395 8.8663836 68.500008
-2.2348411 8.87609 68.574997
-2.087718 8.8890343 68.675003
-1.939453 8.8987427 68.750008
-1.790208 8.9052134 68.800003
-1.661 9.0217066 69.700005
-1.509456 9.0281782 69.750008
-1.3572069 9.031414 69.775002
-5.649467 9.2070942 69.950005
-5.4884362 9.1939316 69.850006
-5.3278441 9.180769 69.750008
-5.1676879 9.1676064 69.650002
-5.0061712 9.1511536 69.525002
-4.8434558 9.1314096 69.375
-4.6813979 9.1116657 69.224998
-4.5216331 9.0952139 69.100006
-4.3624139 9.0787601 68.974998
-4.2067971 9.0688887 68.900002
-4.051507 9.0590162 68.824997
-3.8965471 9.0491457 68.750008
-3.7405519 9.0359821 68.650002
-3.584996 9.0228205 68.550003
-3.429877 9.0096579 68.450005
-3.2763951 8.9997864 68.375
-3.1243839 8.9932051 68.325005
-2.97368 8.9899149 68.300003
-2.8251531 8.9932051 68.325005
-2.676517 8.9964952 68.350006
-2.530545 9.0096579 68.450005
-2.3841341 9.0228205 68.550003
-2.2372849 9.0359821 68.650002
-2.0892379 9.0458546 68.724998
-1.941568 9.0590162 68.824997
-1.812325 9.1676064 69.650002
-1.662192 9.180769 69.750008
-1.510538 9.1873503 69.800003
-1.3586659 9.1939316 69.850006
-5.649467 9.3601217 69.950005
-5.4884362 9.3467417 69.850006
-5.3297529 9.3367052 69.775002
-5.1695442 9.3233242 69.675003
-5.0079708 9.3065977 69.550003
-4.845201 9.2865257 69.400002
-4.6813979 9.2631083 69.224998
-4.5199971 9.2430372 69.075005
-4.363996 9.2330017 69.000008
-4.2067971 9.2196198 68.900002
-4.052979 9.2129297 68.850006
-3.897964 9.2028942 68.775002
-3.7432771 9.1928577 68.700005
-3.587611 9.1794767 68.600006
-3.4323831 9.1660957 68.500008
-3.2775929 9.1527138 68.400002
-3.1255269 9.1460247 68.350006
-2.9747691 9.1426783 68.325005
-2.8251531 9.1426783 68.325005
-2.6784749 9.1527138 68.400002
-2.532393 9.1660957 68.500008
-2.3910899 9.1995487 68.750008
-2.2478769 9.2296553 68.974998
-2.105958 9.2697992 69.275002
-1.963431 9.3132887 69.600006
-1.8142771 9.3300142 69.724998
-1.663383 9.3400497 69.800003
-1.51162 9.3467417 69.850006
-1.359638 9.3534317 69.900009
-1.207438 9.3601217 69.950005
-5.6514859 9.5165501 69.974998
-5.4904008 9.5029497 69.875
-5.3316631 9.4927502 69.800003
-5.1713991 9.4791498 69.700005
-5.0115719 9.4655495 69.600006
-4.8486919 9.4451504 69.450005
-4.6830888 9.4179506 69.250008
-4.5216331 9.3975506 69.100006
-4.3655772 9.387351 69.025002
-4.2098498 9.3771505 68.950005
-4.055923 9.3703499 68.900002
-3.902215 9.3635511 68.850006
-3.7473631 9.3533506 68.775002
-3.5902259 9.3363504 68.650002
-3.4348879 9.3227501 68.550003
-3.278791 9.3057518 68.425003
-3.1266699 9.2989511 68.375
-2.975857 9.2955513 68.350006
-2.8272209 9.2989511 68.375
-2.7049079 9.3941507 69.075005
-2.561044 9.4213495 69.275002
-2.411088 9.4281511 69.325005
-2.262542 9.4417505 69.425003
-2.1143179 9.4587498 69.550003
-1.964842 9.4723501 69.650002
-1.814927 9.4859505 69.750008
-1.6639791 9.49615 69.825005
-1.512702 9.5063496 69.900009
-1.361097 9.5165501 69.974998
-5.6514859 9.6696329 69.974998
-5.4923649 9.6592693 69.900009
-5.3335719 9.6489058 69.825005
-5.175108 9.6385412 69.750008
-5.016973 9.6281776 69.675003
-4.8591652 9.6178131 69.600006
-4.6898508 9.5832663 69.350006
-4.5232692 9.5521736 69.125
-4.3671579 9.54181 69.050003
-4.212903 9.5349016 69.000008
-4.058866 9.5279913 68.950005
-3.9050479 9.5210819 68.900002
-3.754174 9.5210819 68.900002
-3.6281409 9.5867205 69.375
-3.4812379 9.6005392 69.474998
-3.3279071 9.597085 69.450005
-3.1689689 9.5763569 69.300003
-3.0215721 9.5901747 69.400002
-2.8685701 9.5867205 69.375
-2.716655 9.5867205 69.375
-2.5647409 9.5867205 69.375
-2.4136961 9.5901747 69.400002
-2.2641709 9.6005392 69.474998
-2.115078 9.6143589 69.575005
-1.965547 9.6281776 69.675003
-1.815578 9.6419964 69.775002
-1.66517 9.6558142 69.875
-1.513785 9.6661787 69.950005
-5.1788182 9.7981501 69.800003
-5.0223732 9.791132 69.750008
-4.8661461 9.7841129 69.700005
-4.7101388 9.7770948 69.650002
-4.5347199 9.7279634 69.300003
-4.371901 9.7033978 69.125
-4.2159548 9.6928692 69.050003
-4.0676961 9.6998882 69.100006
-3.9362209 9.7490196 69.450005
-3.7895911 9.7630568 69.550003
-3.6372931 9.7630568 69.550003
-3.4849961 9.7630568 69.550003
-3.331501 9.7595472 69.525002
-3.1781149 9.7560387 69.500008
-3.024838 9.7525282 69.474998
-2.8706369 9.7455111 69.425003
-2.7186129 9.7455111 69.425003
-2.5665901 9.7455111 69.425003
-2.4154351 9.7490196 69.450005
-2.264986 9.7560387 69.500008
-2.115078 9.7665672 69.575005
-1.964842 9.7770948 69.650002
-1.815578 9.7946405 69.775002
-2.5869229 3.3932371 69.974998
-3.5062921 3.546319 69.974998
-3.350668 3.543786 69.925003
-3.1952629 3.5412509 69.875
-3.042253 3.5412509 69.875
-2.8892441 3.5412509 69.875
-2.7372141 3.5425191 69.900009
-2.5841501 3.5425191 69.900009
-2.4310861 3.5425191 69.900009
-2.278837 3.543786 69.925003
-2.126478 3.5450521 69.950005
-3.8113861 3.6980801 69.950005
-3.6555979 3.695437 69.900009
-3.5000279 3.6927941 69.850006
-3.345876 3.691473 69.825005
-3.191833 3.69015 69.800003
-3.0389881 3.69015 69.800003
-2.886143 3.69015 69.800003
-2.734277 3.691473 69.825005
-2.581378 3.691473 69.825005
-2.428478 3.691473 69.825005
-2.2763929 3.6927941 69.850006
-2.124198 3.6941161 69.875
-1.971189 3.6941161 69.875
-1.81883 3.695437 69.900009
-1.666362 3.696759 69.925003
-1.514325 3.6994021 69.974998
-4.117733 3.851109 69.950005
-3.961725 3.848356 69.900009
-3.8059371 3.845603 69.850006
-3.6516759 3.8442271 69.825005
-3.4962699 3.8414741 69.775002
-3.3422821 3.8400979 69.750008
-3.1884029 3.838721 69.724998
-3.035722 3.838721 69.724998
-2.8820081 3.8373449 69.700005
-2.729382 3.8373449 69.700005
-2.576756 3.8373449 69.700005
-2.42413 3.8373449 69.700005
-2.2723191 3.838721 69.724998
-2.120398 3.8400979 69.750008
-1.9683681 3.8414741 69.775002
-1.816228 3.84285 69.800003
-1.6639791 3.8442271 69.825005
-1.51162 3.845603 69.850006
-1.359638 3.848356 69.900009
-1.2078691 3.8524849 69.974998
-4.270906 4.004137 69.950005
-4.113318 3.9998429 69.875
-3.956058 3.9955499 69.800003
-3.8004889 3.9926879 69.750008
-3.645138 3.989826 69.700005
-3.4912601 3.988395 69.675003
-3.3374901 3.986964 69.650002
-3.18383 3.985533 69.625
-3.0302801 3.984102 69.600006
-2.8778729 3.984102 69.600006
-2.725466 3.984102 69.600006
-2.572135 3.982671 69.575005
-2.4197831 3.982671 69.575005
-2.268245 3.984102 69.600006
-2.1165979 3.985533 69.625
-1.964842 3.986964 69.650002
-1.8136261 3.989826 69.700005
-1.6615959 3.991257 69.724998
-1.509997 3.9941199 69.775002
-1.35818 3.9969821 69.825005
-1.206574 4.0012751 69.900009
-4.4256611 4.1586509 69.974998
-4.264801 4.1512222 69.850006
-4.1074309 4.1467652 69.775002
-3.9503901 4.1423068 69.700005
-3.793678 4.1378498 69.625
-3.6386011 4.1348791 69.575005
-3.4849961 4.1333928 69.550003
-3.331501 4.131907 69.525002
-3.1792581 4.131907 69.525002
-3.0259261 4.1304221 69.500008
-2.873739 4.1304221 69.500008
-2.720571 4.1289349 69.474998
-2.5684381 4.1289349 69.474998
-2.4163051 4.1289349 69.474998
-2.2641709 4.1289349 69.474998
-2.112798 4.1304221 69.500008
-1.962021 4.1333928 69.550003
-1.811024 4.136364 69.600006
-1.659809 4.1393361 69.650002
-1.508374 4.1423068 69.700005
-1.356721 4.1452789 69.750008
-1.2052799 4.1497359 69.825005
-1.053887 4.1556792 69.925003
-4.4177551 4.3040309 69.850006
-4.2586951 4.2978702 69.750008
-4.1015439 4.2932482 69.675003
-3.943305 4.287086 69.575005
-3.7868669 4.282465 69.500008
-3.6320641 4.2793841 69.450005
-3.4787331 4.277843 69.425003
-3.325511 4.2763028 69.400002
-3.173542 4.2763028 69.400002
-3.020484 4.2747631 69.375
-2.8685701 4.2747631 69.375
-2.716655 4.2747631 69.375
-2.563817 4.273222 69.350006
-2.411958 4.273222 69.350006
-2.2609129 4.2747631 69.375
-2.1097579 4.2763028 69.400002
-1.9592 4.2793841 69.450005
-1.808422 4.282465 69.500008
-1.657426 4.2855458 69.550003
-1.5067509 4.2901669 69.625
-1.3557481 4.2947879 69.700005
-1.2048481 4.300951 69.800003
-1.053511 4.3071132 69.900009
-4.7304268 4.463222 69.950005
-4.5690742 4.455245 69.825005
-4.4098492 4.4488649 69.724998
-4.2510629 4.4424839 69.625
-4.0941858 4.4376988 69.550003
-3.9362209 4.4313178 69.450005
-3.780056 4.4265332 69.375
-3.6242189 4.4217482 69.300003
-3.4712169 4.4201522 69.275002
-3.319521 4.4201522 69.275002
-3.1678259 4.4201522 69.275002
-3.01613 4.4201522 69.275002
-2.864435 4.4201522 69.275002
-2.711761 4.4185581 69.250008
-2.5601201 4.4185581 69.250008
-2.408479 4.4185581 69.250008
-2.257654 4.4201522 69.275002
-2.1067181 4.4217482 69.300003
-1.9563791 4.4249382 69.350006
-1.806471 4.4297228 69.425003
-1.656234 4.4345088 69.500008
-1.505669 4.4392939 69.575005
-1.355262 4.4456749 69.675003
-1.204417 4.452055 69.775002
-1.053887 4.461627 69.925003
-4.8836002 4.61625 69.950005
-4.720283 4.6063499 69.800003
-4.560894 4.599751 69.700005
-4.4019442 4.593152 69.600006
-4.2434311 4.5865531 69.500008
-4.0868282 4.5816031 69.425003
-3.9277191 4.5733528 69.300003
-3.77052 4.5667539 69.200005
-3.616374 4.5634551 69.150002
-3.4649529 4.5634551 69.150002
-3.3135309 4.5634551 69.150002
-3.1621089 4.5634551 69.150002
-3.0106881 4.5634551 69.150002
-2.859266 4.5634551 69.150002
-2.707844 4.5634551 69.150002
-2.5564229 4.5634551 69.150002
-2.4050009 4.5634551 69.150002
-2.254395 4.565104 69.175003
-2.103678 4.5667539 69.200005
-1.954263 4.5717039 69.275002
-1.8045191 4.576653 69.350006
-1.654447 4.5816031 69.425003
-1.5045871 4.588202 69.525002
-1.3542891 4.5948009 69.625
-1.203985 4.6030512 69.750008
-1.0542639 4.61625 69.950005
-5.0349741 4.7675729 69.925003
-4.8731279 4.7590499 69.800003
-4.7118301 4.7505279 69.675003
-4.5543509 4.7454138 69.600006
-4.3956189 4.738596 69.500008
-4.2373252 4.7317781 69.400002
-4.0765262 4.7215509 69.250008
-3.9178009 4.713028 69.125
-3.76371 4.70962 69.075005
-3.6098371 4.7062101 69.025002
-3.458689 4.7062101 69.025002
-3.3075409 4.7062101 69.025002
-3.156394 4.7062101 69.025002
-3.0063341 4.7079139 69.050003
-2.8551309 4.7079139 69.050003
-2.7039289 4.7079139 69.050003
-2.5536511 4.70962 69.075005
-2.4023931 4.70962 69.075005
-2.251951 4.7113242 69.100006
-2.101398 4.713028 69.125
-1.951442 4.7164378 69.175003
-1.802567 4.7232561 69.275002
-1.6526591 4.7283692 69.350006
-1.503505 4.7368922 69.474998
-1.353803 4.7454138 69.600006
-1.203985 4.7556419 69.750008
-1.0542639 4.769278 69.950005
-5.0241728 4.9099908 69.775002
-4.8661461 4.9047141 69.700005
-4.7050672 4.8959179 69.575005
-4.5461712 4.8888812 69.474998
-4.387713 4.881844 69.375
-4.2281671 4.8730478 69.250008
-4.0691681 4.8642521 69.125
-3.912133 4.857214 69.025002
-3.7568991 4.8519368 68.950005
-3.6046081 4.8501778 68.925003
-3.452426 4.8484182 68.900002
-3.3027501 4.8501778 68.925003
-3.1518209 4.8501778 68.925003
-3.0019801 4.8519368 68.950005
-2.85203 4.8536959 68.974998
-2.7009921 4.8536959 68.974998
-2.549953 4.8536959 68.974998
-2.399785 4.8554549 69.000008
-2.249506 4.857214 69.025002
-2.099118 4.858974 69.050003
-1.950031 4.8642521 69.125
-1.800616 4.8695288 69.200005
-1.651468 4.8765659 69.300003
-1.501882 4.8836031 69.400002
-1.3528301 4.8941579 69.550003
-1.203122 4.9047141 69.700005
-1.053887 4.920547 69.925003
-5.191802 5.077147 69.974998
-5.016973 5.0553808 69.675003
-4.8591652 5.0499392 69.600006
-4.699996 5.0426841 69.500008
-4.5412641 5.035428 69.400002
-4.3813891 5.0263591 69.275002
-4.2220612 5.0172882 69.150002
-4.063282 5.0082188 69.025002
-3.906466 5.0009632 68.925003
-3.7528119 4.997335 68.875
-3.5993781 4.9937081 68.824997
-3.448668 4.9937081 68.824997
-3.2979579 4.9937081 68.824997
-3.148391 4.995522 68.850006
-2.9987149 4.997335 68.875
-2.8489289 4.9991488 68.900002
-2.698055 4.9991488 68.900002
-2.548105 5.0009632 68.925003
-2.397176 5.0009632 68.925003
-2.247062 5.0027771 68.950005
-2.0975981 5.0064049 69.000008
-1.947916 5.0100331 69.050003
-1.798664 5.0154738 69.125
-1.64968 5.0227299 69.224998
-1.5008 5.0317998 69.350006
-1.351372 5.0408702 69.474998
-1.201828 5.051753 69.625
-1.052757 5.068078 69.850006
-5.175108 5.2134128 69.750008
-5.0097718 5.2003331 69.575005
-4.8521829 5.1947269 69.500008
-4.693233 5.187252 69.400002
-4.5347199 5.1797781 69.300003
-4.3766451 5.1723042 69.200005
-4.2174821 5.162961 69.075005
-4.060338 5.1554861 68.974998
-3.903631 5.1480122 68.875
-3.7487259 5.142406 68.800003
-3.5967629 5.1405368 68.775002
-3.44491 5.138669 68.750008
-3.295562 5.1405368 68.775002
-3.1449621 5.1405368 68.775002
-2.9954491 5.142406 68.800003
-2.8458281 5.1442742 68.824997
-2.695118 5.1442742 68.824997
-2.545332 5.146143 68.850006
-2.394568 5.146143 68.850006
-2.2446179 5.1480122 68.875
-2.0953181 5.1517491 68.925003
-1.946505 5.1573548 69.000008
-1.797363 5.162961 69.075005
-1.648489 5.170435 69.175003
-1.499718 5.1797781 69.300003
-1.349913 5.187252 69.400002
-1.200533 5.1984639 69.550003
-1.050873 5.211545 69.724998
-0.900769 5.2264929 69.925003
-5.1639791 5.354465 69.600006
-5.0043712 5.3467708 69.500008
-4.8469472 5.341001 69.425003
-4.6881609 5.3333082 69.325005
-4.5298119 5.325614 69.224998
-4.371901 5.3179221 69.125
-4.212903 5.3083048 69.000008
-4.055923 5.300611 68.900002
-3.9007981 5.2948418 68.824997
-3.746001 5.289072 68.750008
-3.5941479 5.287149 68.724998
-3.442405 5.2852249 68.700005
-3.2931659 5.287149 68.724998
-3.1426749 5.287149 68.724998
-2.993273 5.289072 68.750008
-2.84376 5.2909961 68.775002
-2.6931601 5.2909961 68.775002
-2.5425601 5.2909961 68.775002
-2.3928289 5.2929192 68.800003
-2.2429881 5.2948418 68.824997
-2.0937979 5.2986879 68.875
-1.944389 5.302536 68.925003
-1.796062 5.3102279 69.025002
-1.647298 5.3179221 69.125
-1.498095 5.325614 69.224998
-1.34894 5.3352308 69.350006
-1.19967 5.3467708 69.500008
-1.049742 5.3583102 69.650002
-0.89947999 5.3717742 69.825005
-0.74818403 5.3833141 69.974998
-5.156559 5.4988151 69.500008
-4.998971 5.4928799 69.425003
-4.8434558 5.488925 69.375
-4.6847801 5.4810119 69.275002
-4.5265412 5.4731011 69.175003
-4.3671579 5.4632111 69.050003
-4.2098498 5.4552989 68.950005
-4.052979 5.4473872 68.850006
-3.897964 5.441453 68.775002
-3.7446389 5.4374971 68.724998
-3.5915329 5.4335408 68.675003
-3.4411521 5.4335408 68.675003
-3.290771 5.4335408 68.675003
-3.140389 5.4335408 68.675003
-2.991096 5.4355192 68.700005
-2.8416929 5.4374971 68.724998
-2.6912019 5.4374971 68.724998
-2.5407109 5.4374971 68.724998
-2.3902199 5.4374971 68.724998
-2.2405441 5.4394751 68.750008
-2.0915179 5.4434309 68.800003
-1.942979 5.4493651 68.875
-1.7947609 5.4572759 68.974998
-1.646106 5.465189 69.075005
-1.497013 5.4731011 69.175003
-1.347968 5.4829912 69.300003
-1.198375 5.4928799 69.425003
-1.0482351 5.5027699 69.550003
-0.89819199 5.5166159 69.724998
-0.74684799 5.5265059 69.850006
-0.59474403 5.5344181 69.950005
-5.1509948 5.6447601 69.425003
-4.9953709 5.6406951 69.375
-4.8382201 5.6345959 69.300003
-4.679708 5.6264658 69.200005
-4.5216331 5.6183348 69.100006
-4.363996 5.6102052 69.000008
-4.2067971 5.6020741 68.900002
-4.050036 5.5939431 68.800003
-3.8951299 5.5878448 68.724998
-3.741915 5.5837798 68.675003
-3.588918 5.5797138 68.625
-3.4386461 5.5797138 68.625
-3.2883739 5.5797138 68.625
-3.139246 5.5817471 68.650002
-2.988919 5.5817471 68.650002
-2.8396261 5.5837798 68.675003
-2.689244 5.5837798 68.675003
-2.5388629 5.5837798 68.675003
-2.3884809 5.5837798 68.675003
-2.238914 5.585813 68.700005
-2.089998 5.5898781 68.750008
-1.941568 5.5959749 68.824997
-1.79346 5.6041059 68.925003
-1.644914 5.612237 69.025002
-1.495931 5.620368 69.125
-1.346509 5.6284981 69.224998
-1.197081 5.6386619 69.350006
-1.046728 5.6467929 69.450005
-0.89658201 5.658989 69.600006
-0.745511 5.6691518 69.724998
-0.59346801 5.6752501 69.800003
-5.147285 5.7924652 69.375
-4.9899702 5.7862029 69.300003
-4.8347292 5.7820292 69.250008
-4.6763258 5.7736788 69.150002
-4.5183611 5.7653289 69.050003
-4.359252 5.7548919 68.925003
-4.2037439 5.748631 68.850006
-4.0470929 5.7402811 68.750008
-3.8922961 5.7340188 68.675003
-3.7391911 5.7298441 68.625
-3.586303 5.7256689 68.574997
-3.436141 5.7256689 68.574997
-3.2859781 5.7256689 68.574997
-3.1369591 5.727757 68.600006
-2.9878299 5.7298441 68.625
-2.837558 5.7298441 68.625
-2.6872859 5.7298441 68.625
-2.537014 5.7298441 68.625
-2.3867421 5.7298441 68.625
-2.2372849 5.7319312 68.650002
-2.0884781 5.7361059 68.700005
-1.940158 5.7423692 68.775002
-1.792159 5.7507181 68.875
-1.643723 5.7590671 68.974998
-1.494849 5.767417 69.075005
-1.345536 5.7757659 69.175003
-1.195786 5.7841158 69.275002
-1.045221 5.7903781 69.350006
-0.89497203 5.8008151 69.474998
-0.74364001 5.8070769 69.550003
-0.59197998 5.8133392 69.625
-5.1435752 5.9399509 69.325005
-4.9881701 5.935667 69.275002
-4.8312378 5.9292412 69.200005
-4.672945 5.9206729 69.100006
-4.513453 5.9099622 68.974998
-4.3560901 5.9013939 68.875
-4.1991649 5.8928261 68.775002
-4.0426779 5.8842578 68.675003
-3.888046 5.877831 68.600006
-3.7351041 5.8735471 68.550003
-3.583689 5.8714051 68.525002
-3.433636 5.8714051 68.525002
-3.2835829 5.8714051 68.525002
-3.1346731 5.8735471 68.550003
-2.9856529 5.875689 68.574997
-2.8354909 5.875689 68.574997
-2.685328 5.875689 68.574997
-2.535166 5.875689 68.574997
-2.3850031 5.875689 68.574997
-2.235656 5.877831 68.600006
-2.0869579 5.8821149 68.650002
-1.939453 5.8906841 68.750008
-1.791509 5.8992519 68.850006
-1.643127 5.9078202 68.950005
-1.494308 5.916389 69.050003
-1.344564 5.9228139 69.125
-1.194491 5.9292412 69.200005
-1.043714 5.9335251 69.250008
-0.89303899 5.9399509 69.325005
-0.74203598 5.9463768 69.400002
-0.59070498 5.9528041 69.474998
-5.1435752 6.0916119 69.325005
-4.9863701 6.085022 69.250008
-4.8277469 6.0762348 69.150002
-4.6695628 6.0674472 69.050003
-4.5101819 6.0564642 68.925003
-4.3529272 6.047677 68.824997
-4.1961122 6.0388899 68.724998
-4.0397348 6.0301032 68.625
-3.885211 6.0235119 68.550003
-3.732379 6.0191188 68.500008
-3.581074 6.016922 68.474998
-3.4311299 6.016922 68.474998
-3.2811871 6.016922 68.474998
-3.132386 6.0191188 68.500008
-2.9834759 6.0213161 68.525002
-2.8344569 6.0235119 68.550003
-2.6843491 6.0235119 68.550003
-2.5342419 6.0235119 68.550003
-2.3841341 6.0235119 68.550003
-2.2348411 6.0257092 68.574997
-2.0861981 6.0301032 68.625
-1.938747 6.0388899 68.724998
-1.790208 6.0454798 68.800003
-1.641935 6.0542669 68.900002
-1.4932261 6.0630541 69.000008
-1.343591 6.069644 69.075005
-1.193197 6.074038 69.125
-1.042583 6.0784321 69.175003
-0.89207298 6.085022 69.250008
-0.74070001 6.0872192 69.275002
-5.314476 6.2657871 69.575005
-5.1435752 6.2432728 69.325005
-4.98457 6.2342672 69.224998
-4.8260031 6.2252612 69.125
-4.666183 6.214004 69.000008
-4.5069098 6.2027459 68.875
-4.3481841 6.1914902 68.750008
-4.1915331 6.1824832 68.650002
-4.0367908 6.1757288 68.574997
-3.8823781 6.1689749 68.500008
-3.729655 6.1644721 68.450005
-3.578459 6.16222 68.425003
-3.4286251 6.16222 68.425003
-3.279989 6.1644721 68.450005
-3.131243 6.1667228 68.474998
-2.982388 6.1689749 68.500008
-2.8334229 6.171226 68.525002
-2.6833701 6.171226 68.525002
-2.5333171 6.171226 68.525002
-2.3841341 6.1734781 68.550003
-2.2348411 6.1757288 68.574997
-2.0861981 6.180232 68.625
-1.938042 6.186986 68.700005
-1.790208 6.195992 68.800003
-1.641935 6.204998 68.900002
-1.492684 6.2117519 68.974998
-1.3426189 6.2162552 69.025002
-1.192765 6.2230101 69.100006
-1.0418299 6.2252612 69.125
-0.89110702 6.229764 69.175003
-0.739631 6.229764 69.175003
-5.4982581 6.4548931 69.974998
-5.3125658 6.415689 69.550003
-5.1454301 6.3972402 69.350006
-4.98457 6.3857088 69.224998
-4.8225121 6.3718729 69.075005
-4.6628008 6.360342 68.950005
-4.5036368 6.3488111 68.824997
-4.3450222 6.3372812 68.700005
-4.1884799 6.3280559 68.600006
-4.0338478 6.321137 68.525002
-3.879544 6.314219 68.450005
-3.7269311 6.3096061 68.400002
-3.575844 6.3073001 68.375
-3.4261191 6.3073001 68.375
-3.2775929 6.3096061 68.400002
-3.128957 6.311913 68.425003
-2.9812989 6.316525 68.474998
-2.8323901 6.318831 68.500008
-2.6823919 6.318831 68.500008
-2.5333171 6.321137 68.525002
-2.3832641 6.321137 68.525002
-2.2348411 6.3257489 68.574997
-2.0861981 6.3303618 68.625
-1.938042 6.3372812 68.700005
-1.790208 6.3465042 68.800003
-1.64134 6.3534231 68.875
-1.492144 6.360342 68.950005
-1.3426189 6.36726 69.025002
-1.1923341 6.3718729 69.075005
-1.041453 6.3741789 69.100006
-0.89046299 6.3764849 69.125
-0.73909599 6.3764849 69.125
-5.4884362 6.5961719 69.850006
-5.3163862 6.5725641 69.600006
-5.1509948 6.5560379 69.425003
-4.98457 6.5371509 69.224998
-4.820766 6.5206251 69.050003
-4.65942 6.5064602 68.900002
-4.5003662 6.4946561 68.775002
-4.343441 6.4852128 68.675003
-4.186954 6.475769 68.574997
-4.0323758 6.4686871 68.500008
-3.8781271 6.4616051 68.425003
-3.725569 6.456882 68.375
-3.574537 6.4545221 68.350006
-3.4248669 6.4545221 68.350006
-3.2763951 6.456882 68.375
-3.1278131 6.4592438 68.400002
-2.9791231 6.4616051 68.425003
-2.831356 6.4663262 68.474998
-2.681412 6.4663262 68.474998
-2.532393 6.4686871 68.500008
-2.3832641 6.4710479 68.525002
-2.2348411 6.475769 68.574997
-2.0861981 6.4804912 68.625
-1.938042 6.4875741 68.700005
-1.790208 6.497016 68.800003
-1.64134 6.5040998 68.875
-1.492144 6.5111818 68.950005
-1.3426189 6.5182648 69.025002
-1.191902 6.5206251 69.050003
-1.0410759 6.5229859 69.075005
-0.89014101 6.5253472 69.100006
-0.73882902 6.5253472 69.100006
-5.4904008 6.7513971 69.875
-5.3240242 6.734488 69.700005
-5.1584139 6.7175798 69.525002
-4.9863701 6.691009 69.250008
-4.8155298 6.6644378 68.974998
-4.6560378 6.65236 68.850006
-4.4970942 6.6402822 68.724998
-4.3402781 6.63062 68.625
-4.1854272 6.623374 68.550003
-4.0309048 6.616127 68.474998
-3.8781271 6.6112971 68.425003
-3.725569 6.6064649 68.375
-3.5732291 6.601634 68.325005
-3.423614 6.601634 68.325005
-3.275197 6.6040502 68.350006
-3.1266699 6.6064649 68.375
-2.978034 6.608881 68.400002
-2.829288 6.6112971 68.425003
-2.681412 6.616127 68.474998
-2.532393 6.6185431 68.500008
-2.3832641 6.6209579 68.525002
-2.2348411 6.6257901 68.574997
-2.0861981 6.63062 68.625
-1.938042 6.637867 68.700005
-1.790208 6.6475291 68.800003
-1.64134 6.6547761 68.875
-1.492144 6.6620221 68.950005
-1.3426189 6.6692691 69.025002
-1.191902 6.6716838 69.050003
-1.0410759 6.6740999 69.075005
-0.89014101 6.6765161 69.100006
-0.73882902 6.6765161 69.100006
-5.4943299 6.9092021 69.925003
-5.3297529 6.894381 69.775002
-5.1676879 6.8820291 69.650002
-4.998971 6.859797 69.425003
-4.808548 6.8054528 68.875
-4.6509671 6.7955718 68.775002
-4.4954581 6.7881608 68.700005
-4.3402781 6.7807498 68.625
-4.1854272 6.7733402 68.550003
-4.0309048 6.7659292 68.474998
-3.8767099 6.7585192 68.400002
-3.724206 6.7535782 68.350006
-3.5732291 6.7511072 68.325005
-3.4223609 6.7486382 68.300003
-3.2728009 6.7486382 68.300003
-3.1243839 6.7511072 68.325005
-2.975857 6.7535782 68.350006
-2.8282549 6.7585192 68.400002
-2.680433 6.7634592 68.450005
-2.5314691 6.7659292 68.474998
-2.3832641 6.7708688 68.525002
-2.2348411 6.7758098 68.574997
-2.0861981 6.7807498 68.625
-1.938042 6.7881608 68.700005
-1.790208 6.7980418 68.800003
-1.64134 6.8054528 68.875
-1.492144 6.8128629 68.950005
-1.3426189 6.8202739 69.025002
-1.191902 6.8227439 69.050003
-1.041453 6.8276839 69.100006
-0.89014101 6.8276839 69.100006
-0.73909599 6.8301539 69.125
-5.496294 7.0647001 69.950005
-5.3335719 7.0520759 69.825005
-5.175108 7.0445008 69.750008
-5.016973 7.0369258 69.675003
-4.805058 6.9510789 68.824997
-4.6509671 6.9460301 68.775002
-4.4954581 6.9384551 68.700005
-4.3402781 6.9308801 68.625
-4.1854272 6.923305 68.550003
-4.0309048 6.91573 68.474998
-3.8767099 6.908155 68.400002
-3.724206 6.9031062 68.350006
-3.5719221 6.898056 68.300003
-3.4198561 6.8930058 68.25
-3.2704051 6.8930058 68.25
-3.122098 6.8955312 68.275002
-2.97368 6.898056 68.300003
-2.8261869 6.9031062 68.350006
-2.6784749 6.908155 68.400002
-2.530545 6.9132051 68.450005
-2.382395 6.9182549 68.500008
-2.234026 6.923305 68.550003
-2.0861981 6.9308801 68.625
-1.938042 6.9384551 68.700005
-1.789557 6.9460301 68.775002
-1.64134 6.9561291 68.875
-1.492144 6.9637041 68.950005
-1.3426189 6.9712782 69.025002
-1.1923341 6.9763279 69.075005
-1.041453 6.9788532 69.100006
-0.89046299 6.9813781 69.125
-0.73936301 6.983902 69.150002
-5.4982581 7.2203069 69.974998
-5.3373909 7.2099891 69.875
-5.1788182 7.20225 69.800003
-5.0205722 7.1945109 69.724998
-4.805058 7.101645 68.824997
-4.6509671 7.096487 68.775002
-4.4987302 7.0939069 68.750008
-4.343441 7.0861678 68.675003
-4.1884799 7.0784292 68.600006
-4.0323758 7.0681109 68.500008
-3.8781271 7.0603719 68.425003
-3.7228439 7.0500541 68.325005
-3.5706141 7.0448952 68.275002
-3.4186029 7.0397348 68.225006
-3.2680089 7.0371561 68.200005
-3.1198111 7.0397348 68.225006
-2.971503 7.042315 68.25
-2.82412 7.0474739 68.300003
-2.677496 7.055213 68.375
-2.5296209 7.0603719 68.425003
-2.381525 7.0655308 68.474998
-2.233211 7.0706902 68.525002
-2.085438 7.0784292 68.600006
-1.937337 7.0861678 68.675003
-1.789557 7.096487 68.775002
-1.640744 7.1042261 68.850006
-1.491603 7.1119642 68.925003
-1.342132 7.1197028 69.000008
-1.1923341 7.1274419 69.075005
-1.0418299 7.1326008 69.125
-0.89078498 7.13518 69.150002
-5.3373909 7.362854 69.875
-5.1806731 7.357585 69.825005
-5.0223732 7.3496828 69.750008
-4.8102942 7.2601161 68.900002
-4.6560378 7.254848 68.850006
-4.5020018 7.249579 68.800003
-4.3466029 7.2416759 68.724998
-4.1915331 7.2337732 68.650002
-4.0353189 7.2232361 68.550003
-3.879544 7.212698 68.450005
-3.7228439 7.1995268 68.325005
-3.5693071 7.1916242 68.25
-3.4160981 7.183722 68.175003
-3.2656131 7.181087 68.150002
-3.1175251 7.183722 68.175003
-2.969326 7.1863561 68.200005
-2.822052 7.1916242 68.25
-2.675539 7.1995268 68.325005
-2.5277719 7.2047958 68.375
-2.380656 7.212698 68.450005
-2.233211 7.220602 68.525002
-2.085438 7.2285051 68.600006
-1.937337 7.2364082 68.675003
-1.7889071 7.2443099 68.750008
-1.640148 7.252213 68.824997
-1.491061 7.2601161 68.900002
-1.341646 7.2680192 68.974998
-1.191902 7.2759218 69.050003
-1.0418299 7.2838249 69.125
-0.89142901 7.291728 69.200005
-0.740165 7.2943611 69.224998
-0.58900499 7.2996302 69.275002
-5.3373909 7.515718 69.875
-5.1788182 7.5076499 69.800003
-5.0187721 7.4968939 69.700005
-4.8190212 7.4242921 69.025002
-4.6628008 7.416225 68.950005
-4.5085449 7.4108472 68.900002
-4.3529272 7.4027801 68.824997
-4.1961122 7.392024 68.724998
-4.0397348 7.381268 68.625
-3.88096 7.3651338 68.474998
-3.724206 7.3516898 68.350006
-3.5679989 7.338244 68.225006
-3.4160981 7.3328671 68.175003
-3.264415 7.3274879 68.125
-3.115238 7.3274879 68.125
-2.967149 7.3301768 68.150002
-2.8210189 7.338244 68.225006
-2.6735809 7.3436222 68.275002
-2.5268481 7.3516898 68.350006
-2.379786 7.359756 68.425003
-2.2323971 7.3678231 68.500008
-2.0846779 7.3758898 68.574997
-1.937337 7.3866458 68.675003
-1.7889071 7.3947129 68.750008
-1.640148 7.4027801 68.824997
-1.491061 7.4108472 68.900002
-1.341646 7.4189129 68.974998
-1.191902 7.426981 69.050003
-1.0418299 7.4350481 69.125
-0.89142901 7.4431152 69.200005
-0.74043298 7.448493 69.250008
-0.58921701 7.4538708 69.300003
-5.4982581 7.6795549 69.974998
-5.3373909 7.668581 69.875
-5.1769629 7.6576071 69.775002
-5.016973 7.6466322 69.675003
-4.845201 7.6164508 69.400002
-4.6780171 7.5917592 69.175003
-4.5167251 7.5752959 69.025002
-4.3608332 7.5670648 68.950005
-4.2022181 7.5533471 68.824997
-4.0441489 7.539629 68.700005
-3.8866279 7.5259099 68.574997
-3.7269311 7.5067039 68.400002
-3.5693071 7.490242 68.25
-3.414845 7.4792681 68.150002
-3.264415 7.4765239 68.125
-3.114095 7.4737802 68.100006
-2.9660611 7.4765239 68.125
-2.8189509 7.4820118 68.175003
-2.671623 7.4874978 68.225006
-2.525923 7.4984732 68.325005
-2.378917 7.5067039 68.400002
-2.2323971 7.5176792 68.500008
-2.0846779 7.5259099 68.574997
-1.936631 7.5341411 68.650002
-1.788256 7.5423722 68.724998
-1.639553 7.5506029 68.800003
-1.49052 7.5588341 68.875
-1.3411601 7.5670648 68.950005
-1.191471 7.5752959 69.025002
-1.041453 7.5835271 69.100006
-0.89142901 7.594502 69.200005
-0.74070001 7.6027341 69.275002
-0.59028 7.619195 69.425003
-5.4982581 7.8326378 69.974998
-5.3373909 7.821445 69.875
-5.1769629 7.8102512 69.775002
-5.016973 7.799058 69.675003
-4.853929 7.782268 69.525002
-4.6915421 7.7654781 69.375
-4.5281758 7.7458901 69.200005
-4.3703198 7.7346959 69.100006
-4.2113762 7.7207041 68.974998
-4.052979 7.7067118 68.850006
-3.893713 7.6899209 68.700005
-3.732379 7.6675358 68.500008
-3.5719221 7.6451478 68.300003
-3.4160981 7.631156 68.175003
-3.264415 7.6255598 68.125
-3.114095 7.6227608 68.100006
-2.964972 7.6227608 68.100006
-2.816884 7.6255598 68.125
-2.670644 7.633954 68.200005
-2.524075 7.6423502 68.275002
-2.378047 7.653543 68.375
-2.2315819 7.6647358 68.474998
-2.0846779 7.67593 68.574997
-1.937337 7.6871238 68.675003
-1.7889071 7.695519 68.750008
-1.639553 7.7011151 68.800003
-1.49052 7.7095108 68.875
-1.3411601 7.717906 68.950005
-1.191471 7.7263012 69.025002
-1.041453 7.7346959 69.100006
-0.89110702 7.7430911 69.175003
-0.74096698 7.757082 69.300003
-0.59197998 7.7934608 69.625
-5.496294 7.9828691 69.950005
-5.3373909 7.974309 69.875
-5.1769629 7.9628968 69.775002
-5.016973 7.9514852 69.675003
-4.85742 7.940073 69.575005
-4.6966138 7.925807 69.450005
-4.537992 7.9143958 69.350006
-4.3782258 7.9001298 69.224998
-4.219008 7.8858652 69.100006
-4.058866 7.8687472 68.950005
-3.8965471 7.845922 68.750008
-3.737828 7.828804 68.600006
-3.5771511 7.8059778 68.400002
-3.4186029 7.7860069 68.225006
-3.2656131 7.7774482 68.150002
-3.114095 7.7717419 68.100006
-2.9638841 7.768889 68.075005
-2.81585 7.7717419 68.100006
-2.6696651 7.780302 68.175003
-2.5231509 7.7888598 68.25
-2.377178 7.8002729 68.350006
-2.2315819 7.814538 68.474998
-2.0846779 7.8259511 68.574997
-1.937337 7.8373628 68.675003
-1.7889071 7.845922 68.750008
-1.640148 7.8544812 68.824997
-1.49052 7.860188 68.875
-1.3411601 7.8687472 68.950005
-1.191039 7.8744531 69.000008
-1.0410759 7.8830118 69.075005
-0.89078498 7.891571 69.150002
-0.74337298 7.9343672 69.525002
-5.496294 8.1358967 69.950005
-5.3373909 8.1271734 69.875
-5.1769629 8.1155424 69.775002
-5.0187721 8.1068192 69.700005
-4.8609099 8.0980959 69.625
-4.7016859 8.0864649 69.525002
-4.5429001 8.0748339 69.425003
-4.3829689 8.0602951 69.300003
-4.223588 8.0457573 69.175003
-4.06181 8.025403 69.000008
-3.8993809 8.00214 68.800003
-3.7405519 7.984694 68.650002
-3.579766 7.961432 68.450005
-3.421109 7.9410782 68.275002
-3.2668109 7.9294472 68.175003
-3.114095 7.920723 68.100006
-2.9638841 7.9178152 68.075005
-2.81585 7.920723 68.100006
-2.6686859 7.926538 68.150002
-2.522227 7.9352622 68.225006
-2.377178 7.949801 68.350006
-2.230767 7.961432 68.450005
-2.0846779 7.9759698 68.574997
-1.937337 7.9876008 68.675003
-1.789557 7.9992318 68.775002
-1.640744 8.0079556 68.850006
-1.491061 8.0137711 68.900002
-1.3411601 8.0195866 68.950005
-1.191039 8.025403 69.000008
-1.040699 8.0312176 69.050003
-0.89046299 8.0399408 69.125
-5.496294 8.2889252 69.950005
-5.3373909 8.2800369 69.875
-5.1788182 8.2711506 69.800003
-5.0205722 8.2622623 69.724998
-4.8626552 8.2533751 69.650002
-4.7033758 8.2415257 69.550003
-4.5445352 8.2296762 69.450005
-4.384551 8.2148638 69.325005
-4.2251139 8.2000513 69.200005
-4.063282 8.1793146 69.025002
-3.9007981 8.1556139 68.824997
-3.7391911 8.1319151 68.625
-3.579766 8.1111784 68.450005
-3.4223609 8.0934029 68.300003
-3.2680089 8.0815535 68.200005
-3.115238 8.0726662 68.125
-2.964972 8.0697041 68.100006
-2.81585 8.0697041 68.100006
-2.6686859 8.0756283 68.150002
-2.522227 8.0845165 68.225006
-2.376308 8.0963659 68.325005
-2.2315819 8.1141415 68.474998
-2.085438 8.128953 68.600006
-1.938042 8.1408024 68.700005
-1.790208 8.1526527 68.800003
-1.64134 8.16154 68.875
-1.492144 8.1704273 68.950005
-1.341646 8.1733894 68.974998
-1.191471 8.1793146 69.025002
-1.040699 8.1822767 69.050003
-5.496294 8.4419537 69.950005
-5.3373909 8.4329014 69.875
-5.1788182 8.423851 69.800003
-5.0205722 8.4147987 69.724998
-4.8626552 8.4057474 69.650002
-4.7016859 8.3906622 69.525002
-4.5429001 8.3785934 69.425003
-4.3829689 8.3635073 69.300003
-4.223588 8.3484221 69.175003
-4.06181 8.327302 69.000008
-3.897964 8.300148 68.775002
-3.737828 8.2790279 68.600006
-3.579766 8.2609253 68.450005
-3.423614 8.2458391 68.325005
-3.269207 8.2337704 68.225006
-3.1163809 8.224719 68.150002
-2.9660611 8.2217026 68.125
-2.816884 8.2217026 68.125
-2.6696651 8.2277374 68.175003
-2.5231509 8.2367878 68.25
-2.377178 8.2488565 68.350006
-2.2315819 8.2639418 68.474998
-2.0861981 8.2820454 68.625
-1.939453 8.2971315 68.750008
-1.791509 8.3091993 68.850006
-1.642531 8.3182507 68.925003
-1.492684 8.3242846 68.974998
-1.3426189 8.3303194 69.025002
-1.1923341 8.3363543 69.075005
-5.496294 8.5949812 69.950005
-5.3373909 8.5857658 69.875
-5.1788182 8.5765495 69.800003
-5.0187721 8.5642624 69.700005
-4.8609099 8.555047 69.625
-4.699996 8.5396881 69.500008
-4.539628 8.5243292 69.375
-4.3782258 8.5058985 69.224998
-4.219008 8.4905396 69.100006
-4.058866 8.4721079 68.950005
-3.8965471 8.4475336 68.750008
-3.7351041 8.4229584 68.550003
-3.578459 8.4076004 68.425003
-3.423614 8.3953123 68.325005
-3.2704051 8.386096 68.25
-3.1175251 8.3768816 68.175003
-2.9682381 8.3768816 68.175003
-2.8189509 8.3768816 68.175003
-2.671623 8.3830252 68.225006
-2.5249989 8.3922405 68.300003
-2.378917 8.4045277 68.400002
-2.234026 8.4229584 68.550003
-2.087718 8.4383183 68.675003
-1.940863 8.4536772 68.800003
-1.79281 8.4659643 68.900002
-1.643723 8.4751797 68.974998
-1.494308 8.484396 69.050003
-1.344077 8.4905396 69.100006
-5.4943299 8.7448826 69.925003
-5.3354821 8.7355032 69.850006
-5.1769629 8.7261238 69.775002
-5.016973 8.7136183 69.675003
-4.8556738 8.6979847 69.550003
-4.693233 8.679225 69.400002
-4.5314479 8.6604671 69.250008
-4.371901 8.6448355 69.125
-4.212903 8.6292019 69.000008
-4.052979 8.6104422 68.850006
-3.893713 8.5916834 68.700005
-3.7351041 8.5729237 68.550003
-3.578459 8.557292 68.425003
-3.423614 8.5447845 68.325005
-3.2716031 8.5385323 68.275002
-3.1198111 8.532279 68.225006
-2.9704151 8.532279 68.225006
-2.822052 8.5354052 68.25
-2.6735809 8.5385323 68.275002
-2.5277719 8.5510387 68.375
-2.381525 8.5635443 68.474998
-2.23647 8.582304 68.625
-2.089998 8.5979366 68.750008
-1.942979 8.6135683 68.875
-1.7954119 8.6292019 69.000008
-1.647298 8.6448355 69.125
-1.501341 8.6760988 69.375
-1.356234 8.7198706 69.724998
-5.4943299 8.8978567 69.925003
-5.3354821 8.8883133 69.850006
-5.175108 8.8755884 69.750008
-5.0133719 8.8596821 69.625
-4.8486919 8.8374138 69.450005
-4.6847801 8.8151445 69.275002
-4.5249038 8.7992382 69.150002
-4.3671579 8.7865143 69.050003
-4.208324 8.7706079 68.925003
-4.050036 8.7547016 68.800003
-3.8922961 8.7387962 68.675003
-3.7351041 8.7228899 68.550003
-3.579766 8.710165 68.450005
-3.4248669 8.6974401 68.350006
-3.2728009 8.6910772 68.300003
-3.122098 8.6878967 68.275002
-2.9725921 8.6878967 68.275002
-2.82412 8.6910772 68.300003
-2.677496 8.7006207 68.375
-2.530545 8.710165 68.450005
-2.3850031 8.7260704 68.574997
-2.238914 8.7419767 68.700005
-2.0937979 8.764245 68.875
-1.946505 8.7801523 69.000008
-1.799966 8.8024206 69.175003
-1.654447 8.8342323 69.425003
-1.5067509 8.8596821 69.625
-5.6514859 9.0573025 69.974998
-5.4943299 9.0508299 69.925003
-5.3335719 9.0378857 69.825005
-5.1732531 9.0249424 69.724998
-5.0061712 8.9990549 69.525002
-4.8382201 8.9699316 69.300003
-4.6780171 8.9537535 69.175003
-4.5199971 8.9408092 69.075005
-4.3624139 8.927865 68.974998
-4.2067971 8.9181576 68.900002
-4.048564 8.9019775 68.775002
-3.8922961 8.8890343 68.675003
-3.7351041 8.8728542 68.550003
-3.581074 8.8631468 68.474998
-3.427372 8.8534393 68.400002
-3.275197 8.8469677 68.350006
-3.1243839 8.8437309 68.325005
-2.975857 8.8469677 68.350006
-2.8282549 8.8534393 68.400002
-2.680433 8.859911 68.450005
-2.5342419 8.8728542 68.550003
-2.3884809 8.8890343 68.675003
-2.242173 8.9052134 68.800003
-2.096838 8.927865 68.974998
-1.952147 8.9569883 69.200005
-1.805169 8.9796391 69.375
-1.657426 9.0022907 69.550003
-1.507292 9.015234 69.650002
-5.6514859 9.2103844 69.974998
-5.4923649 9.2005138 69.900009
-5.3335719 9.1906414 69.825005
-5.1695442 9.1708965 69.675003
-4.998971 9.1379919 69.425003
-4.832984 9.1116657 69.224998
-4.6746349 9.0985041 69.125
-4.5183611 9.0886326 69.050003
-4.3624139 9.0787601 68.974998
-4.2067971 9.0688887 68.900002
-4.050036 9.0557261 68.800003
-3.893713 9.0425644 68.700005
-3.7364659 9.0261106 68.574997
-3.582381 9.0162392 68.500008
-3.4286251 9.0063677 68.425003
-3.2775929 9.0030766 68.400002
-3.1278131 9.0030766 68.400002
-2.9791231 9.0063677 68.425003
-2.831356 9.012949 68.474998
-2.6843491 9.0228205 68.550003
-2.5379381 9.0359821 68.650002
-2.3910899 9.0491457 68.750008
-2.2454331 9.0688887 68.900002
-2.1006379 9.0952139 69.100006
-1.955673 9.1248293 69.325005
-1.808422 9.1478634 69.500008
-1.658617 9.161025 69.600006
-1.508374 9.1741877 69.700005
-5.6514859 9.3634672 69.974998
-5.4923649 9.3534317 69.900009
-5.3316631 9.3400497 69.800003
-5.165833 9.3166332 69.625
-4.9935708 9.2798347 69.350006
-4.832984 9.2631083 69.224998
-4.6746349 9.2497272 69.125
-4.5183611 9.2396917 69.050003
-4.363996 9.2330017 69.000008
-4.208324 9.2229652 68.925003
-4.052979 9.2129297 68.850006
-3.897964 9.2028942 68.775002
-3.7391911 9.1828222 68.625
-3.583689 9.1694403 68.525002
-3.429877 9.1594048 68.450005
-3.279989 9.1594048 68.450005
-3.131243 9.1627502 68.474998
-2.982388 9.1660957 68.500008
-2.8354909 9.1761312 68.574997
-2.6872859 9.1828222 68.625
-2.5407109 9.1962032 68.724998
-2.393698 9.2095833 68.824997
-2.2478769 9.2296553 68.974998
-2.1044381 9.2631083 69.224998
-1.9584939 9.2898712 69.425003
-1.809723 9.3065977 69.550003
-1.659809 9.3199778 69.650002
-1.51162 9.3467417 69.850006
-5.6514859 9.5165501 69.974998
-5.4923649 9.5063496 69.900009
-5.3316631 9.4927502 69.800003
-5.165833 9.4689503 69.625
-4.9953709 9.4349499 69.375
-4.8347292 9.4179506 69.250008
-4.6763258 9.4043503 69.150002
-4.5199971 9.3941507 69.075005
-4.3655772 9.387351 69.025002
-4.212903 9.3839512 69.000008
-4.058866 9.3771505 68.950005
-3.903631 9.36695 68.875
-3.7446389 9.3465509 68.724998
-3.584996 9.3227501 68.550003
-3.4323831 9.3159513 68.500008
-3.2823851 9.3159513 68.500008
-3.1346731 9.3227501 68.550003
-2.986742 9.3295517 68.600006
-2.8385921 9.3363504 68.650002
-2.6912019 9.3465509 68.724998
-2.543484 9.3567495 68.800003
-2.395437 9.36695 68.875
-2.2503209 9.3907509 69.050003
-2.108238 9.431551 69.350006
-1.961315 9.4553499 69.525002
-1.812325 9.4723501 69.650002
-1.662192 9.4859505 69.750008
-5.6514859 9.6696329 69.974998
-5.4923649 9.6592693 69.900009
-5.3335719 9.6489058 69.825005
-5.1639791 9.6178131 69.600006
-4.9953709 9.5867205 69.375
-4.8364749 9.5729027 69.275002
-4.6780171 9.5590839 69.175003
-4.5232692 9.5521736 69.125
-4.3687391 9.5452652 69.075005
-4.2174821 9.5452652 69.075005
-4.0647531 9.54181 69.050003
-3.916384 9.5487204 69.100006
-3.7691591 9.5590839 69.175003
-3.6255269 9.579812 69.325005
-3.4787331 9.5936308 69.425003
-3.326709 9.5936308 69.425003
-3.1632531 9.5590839 69.175003
-2.991096 9.4934444 68.700005
-2.8427269 9.5003548 68.750008
-2.6931601 9.503809 68.775002
-2.545332 9.5141745 68.850006
-2.397176 9.5245371 68.925003
-2.251951 9.5487204 69.100006
-2.1135581 9.6074495 69.525002
-1.963431 9.6178131 69.600006
-1.8142771 9.6350861 69.724998
-9.3022985 9.7946405 69.775002
-5.3316631 9.7981501 69.800003
-5.1621242 9.7665672 69.575005
-4.9953709 9.7384911 69.375
-4.8364749 9.7244539 69.275002
-4.679708 9.7139263 69.200005
-4.5249038 9.7069073 69.150002
-4.371901 9.7033978 69.125
-4.2205348 9.7033978 69.125
-4.0691681 9.7033978 69.125
-3.920635 9.7104168 69.175003
-3.7746069 9.7244539 69.275002
-3.6281409 9.7384911 69.375
-3.479985 9.7490196 69.450005
-3.3291049 9.7525282 69.474998
-3.176971 9.7525282 69.474998
-2.9987149 9.6683044 68.875
-2.8458281 9.6612844 68.824997
-2.695118 9.6612844 68.824997
-2.546257 9.6683044 68.875
-2.397176 9.6753225 68.925003
-2.257654 9.7244539 69.275002
-2.115078 9.7665672 69.575005
-1.965547 9.7806044 69.675003
-2.893379 3.546319 69.974998
-2.735256 3.539984 69.850006
-2.5804529 3.5374501 69.800003
-2.426739 3.5361831 69.775002
-2.273134 3.5349159 69.750008
-2.1188779 3.532382 69.700005
-1.965547 3.531116 69.675003
-1.812976 3.531116 69.675003
-1.6615959 3.533649 69.724998
-1.51162 3.539984 69.850006
-1.360611 3.5450521 69.950005
-3.191833 3.69015 69.800003
-3.0368111 3.6875069 69.750008
-2.8830421 3.6861849 69.724998
-2.729382 3.684864 69.700005
-2.5758319 3.683542 69.675003
-2.4223909 3.68222 69.650002
-2.268245 3.6795771 69.600006
-2.115078 3.678256 69.575005
-1.962021 3.676934 69.550003
-1.810374 3.678256 69.575005
-1.6592129 3.6808989 69.625
-1.5089149 3.6861849 69.724998
-1.35818 3.691473 69.825005
-1.207438 3.6980801 69.950005
-3.501281 3.8469801 69.875
-3.3422821 3.8400979 69.750008
-3.1861169 3.835969 69.675003
-3.0324571 3.8345921 69.650002
-2.878907 3.833216 69.625
-2.725466 3.83184 69.600006
-2.572135 3.8304629 69.575005
-2.4189129 3.829087 69.550003
-2.265801 3.8277099 69.525002
-2.112798 3.826334 69.500008
-1.96061 3.826334 69.500008
-1.809072 3.8277099 69.525002
-1.658021 3.8304629 69.575005
-1.5067509 3.833216 69.625
-1.356721 3.8400979 69.750008
-1.206143 3.8469801 69.875
-3.652983 3.9984131 69.850006
-3.492512 3.989826 69.700005
-3.336293 3.985533 69.625
-3.182688 3.984102 69.600006
-3.0281031 3.98124 69.550003
-2.8747721 3.979809 69.525002
-2.72155 3.9783781 69.500008
-2.5675139 3.9755149 69.450005
-2.414566 3.9740851 69.425003
-2.2617271 3.9726529 69.400002
-2.1097579 3.9726529 69.400002
-1.9577889 3.9726529 69.400002
-1.807121 3.9755149 69.450005
-1.656234 3.9783781 69.500008
-1.505669 3.982671 69.575005
-1.3557481 3.989826 69.700005
-1.2052799 3.9969821 69.825005
-1.054641 4.005568 69.974998
-3.801851 4.1467652 69.775002
-3.6425231 4.1393361 69.650002
-3.486249 4.1348791 69.575005
-3.331501 4.131907 69.525002
-3.1781149 4.1304221 69.500008
-3.0237491 4.12745 69.450005
-2.8706369 4.1259642 69.425003
-2.717634 4.1244779 69.400002
-2.563817 4.1215072 69.350006
-2.411088 4.1200209 69.325005
-2.2584679 4.118536 69.300003
