ply
format ascii 1.0
comment PCL generated
element vertex 1553
property float x
property float y
property float z
element face 0
element camera 0
property float view_px
property float view_py
property float view_pz
property float x_axisx
property float x_axisy
property float x_axisz
property float y_axisx
property float y_axisy
property float y_axisz
property float z_axisx
property float z_axisy
property float z_axisz
property float focal
property float scalex
property float scaley
property float centerx
property float centery
property int viewportx
property int viewporty
property float k1
property float k2
end_header
-3.0615849 -2.2501509 61.099998
-2.931385 -2.252913 61.174999
-2.803143 -2.2575171 61.300003
-2.679795 -2.2667241 61.550003
-2.5760269 -2.2943439 62.300003
-2.448416 -2.3026299 62.525005
-2.322592 -2.313678 62.825001
-2.189369 -2.3182819 62.950005
-2.0572269 -2.3247271 63.125004
-1.959278 -2.373523 64.450005
-1.820264 -2.3762851 64.525002
-1.680922 -2.3790469 64.600006
-1.543038 -2.3845711 64.75
-1.402333 -2.3864119 64.800003
-1.26141 -2.3882539 64.850006
-1.119404 -2.3882539 64.850006
-0.97664499 -2.3864119 64.800003
-0.83410501 -2.3845711 64.75
-0.69151598 -2.381809 64.675003
-0.54946798 -2.3799679 64.625
-0.40764001 -2.3781259 64.575005
-0.26613301 -2.3772061 64.550003
-0.124784 -2.3772061 64.550003
0.016577 -2.3790469 64.600006
0.15834101 -2.383651 64.725006
0.300769 -2.389174 64.875
0.44334099 -2.391937 64.950005
0.586016 -2.3937781 65
0.728351 -2.3937781 65
0.87035 -2.3928571 64.975006
1.01185 -2.391016 64.925003
1.153576 -2.390095 64.900002
1.294692 -2.3882539 64.850006
1.435037 -2.3854921 64.775002
1.5756609 -2.383651 64.725006
1.715403 -2.380888 64.650002
1.854816 -2.3781259 64.575005
1.993901 -2.3753641 64.500008
2.1334851 -2.373523 64.450005
2.2737329 -2.372602 64.425003
2.414808 -2.372602 64.425003
2.5558829 -2.372602 64.425003
2.6990509 -2.374444 64.475006
2.841337 -2.3753641 64.500008
2.9848881 -2.3772061 64.550003
3.128659 -2.3790469 64.600006
3.2713821 -2.3799679 64.625
3.414216 -2.380888 64.650002
3.5544081 -2.3799679 64.625
3.6930621 -2.3781259 64.575005
3.8300121 -2.3753641 64.500008
3.9650941 -2.3716819 64.400009
4.0997381 -2.3679991 64.300003
4.2355928 -2.365237 64.224998
4.3728242 -2.363395 64.175003
4.5098348 -2.3615539 64.125
4.6484399 -2.3606329 64.100006
4.9253221 -2.3587921 64.050003
5.0616221 -2.356951 64.000008
-7.1337261 -2.2178049 64.025002
-6.9689498 -2.210011 63.800003
-6.7543149 -2.1857641 63.100006
-6.6056571 -2.1823001 63.000004
-6.4625678 -2.180568 62.950005
-6.3196988 -2.1788361 62.900002
-6.0271692 -2.1242781 61.325001
-5.8496408 -2.10869 60.875004
-5.7092972 -2.106092 60.800003
-5.566988 -2.102628 60.700005
-5.4273548 -2.1000299 60.625004
-5.2858682 -2.096566 60.525002
-5.1469469 -2.0939691 60.450005
-5.0083551 -2.0913711 60.375004
-4.8721099 -2.089638 60.325005
-4.738049 -2.088773 60.300003
-4.6040969 -2.0879059 60.275002
-4.4739652 -2.088773 60.300003
-4.3473229 -2.0913711 60.375004
-4.2203522 -2.0939691 60.450005
-4.0947442 -2.0974331 60.550003
-3.968698 -2.1008959 60.650002
-3.840632 -2.1034939 60.725002
-3.712239 -2.106092 60.800003
-3.5820451 -2.1078241 60.849998
-3.451632 -2.109556 60.900002
-3.3210011 -2.1112881 60.950005
-3.19015 -2.1130199 61
-3.0590799 -2.1147521 61.050003
-2.9277911 -2.1164839 61.099998
-2.7974269 -2.119082 61.174999
-2.668911 -2.1234119 61.300003
-2.5470829 -2.1338041 61.600006
-2.4405839 -2.1589179 62.325001
-2.309653 -2.164114 62.475002
-2.174587 -2.1658461 62.525005
-2.0409319 -2.1693101 62.625004
-1.922798 -2.1909599 63.250004
-1.816738 -2.2307949 64.400009
-1.6783201 -2.2342589 64.500008
-1.540655 -2.239455 64.650002
-1.400169 -2.2411871 64.700005
-1.259465 -2.242919 64.75
-1.117247 -2.242053 64.725006
-0.97476101 -2.2403209 64.675003
-0.83249402 -2.238589 64.625
-0.69044697 -2.2368569 64.575005
-0.54861802 -2.2351251 64.525002
-0.407166 -2.2342589 64.500008
-0.26592699 -2.2342589 64.500008
-0.124736 -2.2351251 64.525002
0.016571 -2.2368569 64.575005
0.15821899 -2.2403209 64.675003
0.30030501 -2.2437849 64.775002
0.44282901 -2.2472489 64.875
0.58534002 -2.248981 64.925003
0.72750998 -2.248981 64.925003
0.86934501 -2.2481151 64.900002
1.010681 -2.246383 64.850006
1.1522419 -2.245517 64.825005
1.293195 -2.2437849 64.775002
1.433929 -2.242053 64.725006
1.5744441 -2.2403209 64.675003
1.714076 -2.2377231 64.600006
1.85338 -2.2351251 64.525002
1.9931279 -2.233393 64.475006
2.132658 -2.2316611 64.425003
2.2719679 -2.229929 64.375
2.4119971 -2.229063 64.350006
2.553899 -2.229929 64.375
2.6959119 -2.2307949 64.400009
2.839134 -2.232527 64.450005
2.98142 -2.233393 64.475006
3.125026 -2.2351251 64.525002
3.267586 -2.235991 64.550003
3.410255 -2.2368569 64.575005
3.550283 -2.235991 64.550003
3.6887729 -2.2342589 64.500008
3.8255579 -2.2316611 64.425003
3.9604759 -2.2281971 64.325005
4.0949559 -2.2247331 64.224998
4.232296 -2.223001 64.175003
4.3694162 -2.2212689 64.125
4.5063181 -2.219537 64.075005
4.644814 -2.2186711 64.050003
4.7831998 -2.2178049 64.025002
4.9214768 -2.216939 64.000008
5.0596442 -2.216073 63.974998
5.1977019 -2.2152071 63.950001
5.33565 -2.2143409 63.925003
-7.2654052 -2.075305 63.950001
-7.117013 -2.072871 63.875
-6.908874 -2.0525889 63.250004
-6.7516379 -2.04691 63.075001
-6.6056571 -2.044476 63.000004
-6.4600019 -2.042042 62.925003
-6.3171878 -2.0404191 62.875004
-6.007513 -1.983628 61.125004
-5.8448362 -1.973893 60.825001
-5.7069492 -1.97227 60.775005
-5.5646949 -1.969025 60.675003
-5.425117 -1.966591 60.600002
-5.2858682 -1.964157 60.525002
-5.1469469 -1.961723 60.450005
-5.0083551 -1.959289 60.375004
-4.8721099 -1.957667 60.325005
-4.738049 -1.956856 60.300003
-4.6060071 -1.956856 60.300003
-4.4758191 -1.957667 60.325005
-4.3473229 -1.959289 60.375004
-4.2203522 -1.961723 60.450005
-4.0930529 -1.964157 60.525002
-3.967062 -1.967402 60.625004
-3.839051 -1.969836 60.700005
-3.710712 -1.97227 60.775005
-3.580574 -1.973893 60.825001
-3.4502151 -1.975515 60.875004
-3.3182759 -1.976326 60.900002
-3.1862271 -1.977138 60.924999
-3.0553219 -1.97876 60.975002
-2.925395 -1.981194 61.050003
-2.793997 -1.9828171 61.099998
-2.664557 -1.986062 61.200005
-2.535712 -1.990119 61.325001
-2.413173 -1.999854 61.625004
-2.3059571 -2.024193 62.375004
-2.173718 -2.02825 62.5
-2.0393021 -2.030684 62.575001
-1.903798 -2.032306 62.625004
-1.783591 -2.0517769 63.225002
-1.674417 -2.0882859 64.350006
-1.537081 -2.093154 64.500008
-1.397464 -2.095588 64.575005
-1.256547 -2.0963991 64.600006
-1.114226 -2.0947759 64.550003
-0.97250003 -2.0939651 64.525002
-0.830562 -2.0923431 64.475006
-0.68910998 -2.091531 64.450005
-0.547768 -2.0907199 64.425003
-0.40669301 -2.0907199 64.425003
-0.265618 -2.0907199 64.425003
-0.124639 -2.0923431 64.475006
0.016558001 -2.0939651 64.525002
0.158097 -2.0972099 64.625
0.29995701 -2.0996439 64.700005
0.442146 -2.102078 64.775002
0.58443898 -2.1037011 64.825005
0.72639 -2.1037011 64.825005
0.86800599 -2.1028891 64.800003
1.0095119 -2.102078 64.775002
1.1509089 -2.1012671 64.75
1.291698 -2.0996439 64.700005
1.432821 -2.0988331 64.675003
1.573226 -2.0972099 64.625
1.713413 -2.095588 64.575005
1.852662 -2.093154 64.500008
1.991583 -2.0907199 64.425003
2.1310029 -2.089097 64.375
2.2702041 -2.0874751 64.325005
2.4101231 -2.086663 64.300003
2.5509241 -2.086663 64.300003
2.6927719 -2.0874751 64.325005
2.83583 -2.089097 64.375
2.977952 -2.0899091 64.400009
3.1213939 -2.091531 64.450005
3.2637889 -2.0923431 64.475006
3.404974 -2.0923431 64.475006
3.5447831 -2.091531 64.450005
3.683054 -2.0899091 64.400009
3.8196199 -2.0874751 64.325005
3.955858 -2.085041 64.250008
4.0917678 -2.082607 64.175003
4.2273502 -2.080173 64.100006
4.364306 -2.0785501 64.050003
4.5028009 -2.077739 64.025002
4.6411881 -2.0769279 64.000008
4.7794652 -2.0761161 63.974998
4.9176321 -2.075305 63.950001
5.0576668 -2.075305 63.950001
5.1956701 -2.0744939 63.925003
5.3335638 -2.073683 63.900005
5.4734888 -2.073683 63.900005
-7.4720249 -1.952805 64.525002
-7.2568841 -1.933133 63.875
-7.1058712 -1.930107 63.775002
-6.9116039 -1.914975 63.275002
-6.7489619 -1.908165 63.050003
-6.603034 -1.905895 62.975002
-6.4574351 -1.903626 62.900002
-6.3121638 -1.901356 62.825001
-5.990314 -1.84461 60.950005
-5.8448362 -1.840827 60.825001
-5.7046008 -1.838557 60.75
-5.5646949 -1.836287 60.675003
-5.425117 -1.834018 60.600002
-5.2858682 -1.831748 60.525002
-5.1469469 -1.829478 60.450005
-5.0083551 -1.827208 60.375004
-4.8741288 -1.826452 60.350002
-4.7400131 -1.825695 60.325005
-4.6079159 -1.825695 60.325005
-4.477674 -1.826452 60.350002
-4.349123 -1.827965 60.400002
-4.2220969 -1.830235 60.475002
-4.0947442 -1.832504 60.550003
-3.967062 -1.834774 60.625004
-3.839051 -1.837044 60.700005
-3.710712 -1.839314 60.775005
-3.579102 -1.84007 60.800003
-3.4487979 -1.841584 60.849998
-3.3169141 -1.84234 60.875004
-3.1849201 -1.843097 60.900002
-3.054069 -1.84461 60.950005
-2.9229989 -1.846123 61
-2.7928541 -1.848393 61.075001
-2.66238 -1.8506629 61.150002
-2.5336449 -1.8544461 61.275005
-2.404362 -1.858229 61.400002
-2.281002 -1.867308 61.700005
-2.1711099 -1.88925 62.425007
-2.037673 -1.892277 62.525005
-1.903039 -1.894546 62.600006
-1.773717 -1.902869 62.875004
-1.660756 -1.93162 63.825005
-1.533506 -1.9475091 64.350006
-1.393136 -1.948265 64.375
-1.2526571 -1.9490221 64.400009
-1.111205 -1.948265 64.375
-0.969863 -1.9475091 64.350006
-0.82862997 -1.946752 64.325005
-0.687774 -1.946752 64.325005
-0.54691797 -1.946752 64.325005
-0.40606201 -1.946752 64.325005
-0.26530901 -1.9475091 64.350006
-0.124494 -1.9490221 64.400009
0.016539 -1.9505351 64.450005
0.15785199 -1.952805 64.525002
0.299494 -1.955075 64.600006
0.44146401 -1.957345 64.675003
0.58353698 -1.958858 64.725006
0.72526902 -1.958858 64.725006
0.86666602 -1.958101 64.700005
1.007954 -1.957345 64.675003
1.149132 -1.956588 64.650002
1.2902 -1.9558311 64.625
1.43116 -1.955075 64.600006
1.572009 -1.954318 64.575005
1.712086 -1.952805 64.525002
1.851226 -1.9505351 64.450005
1.99081 -1.9490221 64.400009
2.129348 -1.946752 64.325005
2.2684391 -1.9452389 64.275002
2.4082489 -1.944483 64.250008
2.5489399 -1.944483 64.250008
2.6896319 -1.944483 64.250008
2.832526 -1.945996 64.300003
2.974484 -1.946752 64.325005
3.1177609 -1.948265 64.375
3.2587271 -1.948265 64.375
3.399693 -1.948265 64.375
3.539283 -1.9475091 64.350006
3.6773341 -1.945996 64.300003
3.8136821 -1.9437259 64.224998
3.949702 -1.941456 64.150009
4.086987 -1.939943 64.100006
4.222404 -1.937673 64.025002
4.3591952 -1.93616 63.974998
4.4975271 -1.935403 63.950001
4.6357489 -1.934646 63.925003
4.7757301 -1.934646 63.925003
4.91571 -1.934646 63.925003
5.0556898 -1.934646 63.925003
5.1936378 -1.93389 63.900005
5.3335638 -1.93389 63.900005
5.4734888 -1.93389 63.900005
5.6134148 -1.93389 63.900005
-7.460444 -1.8088371 64.425003
-7.2540431 -1.792693 63.850002
-7.0975151 -1.788482 63.700001
-6.9252572 -1.780059 63.400002
-6.7516379 -1.770934 63.075001
-6.603034 -1.768126 62.975002
-6.4548688 -1.765319 62.875004
-6.2920699 -1.7582999 62.625004
-5.9853988 -1.709867 60.900002
-5.8448362 -1.707762 60.825001
-5.7046008 -1.7056561 60.75
-5.5624032 -1.702848 60.650002
-5.4228792 -1.700742 60.575001
-5.2858682 -1.699338 60.525002
-5.1469469 -1.697233 60.450005
-5.0104289 -1.695829 60.400002
-4.8761492 -1.695127 60.375004
-4.7419782 -1.694425 60.350002
-4.6117358 -1.695127 60.375004
-4.4813838 -1.695829 60.400002
-4.3527231 -1.697233 60.450005
-4.2255878 -1.699338 60.525002
-4.098125 -1.701444 60.600002
-3.968698 -1.702848 60.650002
-3.840632 -1.704954 60.725002
-3.710712 -1.706358 60.775005
-3.579102 -1.70706 60.800003
-3.447381 -1.707762 60.825001
-3.315552 -1.708463 60.849998
-3.1836131 -1.709165 60.875004
-3.0528159 -1.710569 60.924999
-2.921802 -1.711973 60.975002
-2.7917111 -1.714079 61.050003
-2.66238 -1.716887 61.150002
-2.5326109 -1.719694 61.25
-2.402405 -1.722502 61.350006
-2.2726841 -1.726011 61.475002
-2.145895 -1.732329 61.700005
-2.035229 -1.753386 62.450005
-1.903039 -1.757598 62.600006
-1.770191 -1.761809 62.750008
-1.64124 -1.770934 63.075001
-1.52874 -1.801116 64.150009
-1.38989 -1.8032219 64.224998
-1.249253 -1.8032219 64.224998
-1.108616 -1.8032219 64.224998
-0.96760201 -1.80252 64.200005
-0.82701999 -1.80252 64.200005
-0.68643701 -1.80252 64.200005
-0.54585499 -1.80252 64.200005
-0.40542999 -1.8032219 64.224998
-0.264999 -1.804626 64.275002
-0.12435 -1.80603 64.325005
0.016519001 -1.807434 64.375
0.157607 -1.8088371 64.425003
0.29903001 -1.810943 64.500008
0.440611 -1.8123471 64.550003
0.58218497 -1.813049 64.575005
0.72330803 -1.8123471 64.550003
0.86465698 -1.8123471 64.550003
1.006006 -1.8123471 64.550003
1.147354 -1.8123471 64.550003
1.288703 -1.8123471 64.550003
1.430052 -1.8123471 64.550003
1.570183 -1.810943 64.500008
1.71076 -1.810241 64.475006
1.84979 -1.808136 64.400009
1.989264 -1.8067321 64.350006
2.127692 -1.804626 64.275002
2.266674 -1.8032219 64.224998
2.406374 -1.80252 64.200005
2.546957 -1.80252 64.200005
2.6875391 -1.80252 64.200005
2.8292229 -1.8032219 64.224998
2.9710159 -1.803924 64.250008
3.1129179 -1.804626 64.275002
3.254931 -1.805328 64.300003
3.394412 -1.804626 64.275002
3.533783 -1.803924 64.250008
3.6730449 -1.8032219 64.224998
3.8092289 -1.801116 64.150009
3.9466231 -1.799713 64.100006
4.0822039 -1.7976069 64.025002
4.2174568 -1.795501 63.950001
4.3557892 -1.794799 63.925003
4.4922519 -1.793395 63.875
4.632123 -1.793395 63.875
4.7719941 -1.793395 63.875
4.9118652 -1.793395 63.875
5.0537128 -1.7940969 63.900005
5.1936378 -1.7940969 63.900005
5.3335638 -1.7940969 63.900005
5.4734888 -1.7940969 63.900005
5.6156101 -1.794799 63.925003
5.75559 -1.794799 63.925003
-7.4546552 -1.666602 64.375
-7.2540431 -1.65301 63.850002
-7.1002998 -1.649774 63.725002
-6.927989 -1.642007 63.425003
-6.7516379 -1.632946 63.075001
-6.6004128 -1.62971 62.950005
-6.4471688 -1.625827 62.800003
-6.1363382 -1.5811681 61.075001
-5.980485 -1.575343 60.849998
-5.8424339 -1.574049 60.800003
-5.7022538 -1.572107 60.725002
-5.5624032 -1.570165 60.650002
-5.4228792 -1.568224 60.575001
-5.2858682 -1.566929 60.525002
-5.149076 -1.565635 60.475002
-5.0125031 -1.56434 60.425003
-4.8781681 -1.563693 60.400002
-4.7459068 -1.563693 60.400002
-4.6136451 -1.563693 60.400002
-4.4850941 -1.564988 60.450005
-4.3563228 -1.566282 60.5
-4.2290788 -1.568224 60.575001
-4.0998158 -1.569518 60.625004
-3.9719701 -1.57146 60.700005
-3.8422129 -1.572754 60.75
-3.710712 -1.573402 60.775005
-3.579102 -1.574049 60.800003
-3.447381 -1.5746959 60.825001
-3.315552 -1.575343 60.849998
-3.1836131 -1.575991 60.875004
-3.0528159 -1.5772851 60.924999
-2.921802 -1.5785789 60.975002
-2.7917111 -1.580521 61.050003
-2.6612921 -1.582463 61.125004
-2.5315771 -1.585052 61.225002
-2.402405 -1.5882879 61.350006
-2.2726841 -1.591524 61.475002
-2.140677 -1.593466 61.550003
-2.013231 -1.599291 61.775005
-1.9022779 -1.620002 62.575001
-1.7687809 -1.623238 62.700005
-1.636037 -1.627768 62.875004
-1.5126539 -1.643302 63.475002
-1.386644 -1.6588351 64.075005
-1.246821 -1.659482 64.100006
-1.106027 -1.6588351 64.075005
-0.96571797 -1.6588351 64.075005
-0.825409 -1.6588351 64.075005
-0.68510097 -1.6588351 64.075005
-0.54500502 -1.659482 64.100006
-0.40479901 -1.66013 64.125
-0.26458699 -1.661424 64.175003
-0.124156 -1.6627181 64.224998
0.016494 -1.664013 64.275002
0.15730099 -1.66466 64.300003
0.29833499 -1.6659549 64.350006
0.43924499 -1.6659549 64.350006
0.58015603 -1.6659549 64.350006
0.72106701 -1.6659549 64.350006
0.86264801 -1.667249 64.400009
1.004058 -1.667896 64.425003
1.145577 -1.668543 64.450005
1.286707 -1.668543 64.450005
1.4278359 -1.668543 64.450005
1.5683579 -1.667896 64.425003
1.708769 -1.667249 64.400009
1.847635 -1.665307 64.325005
1.986946 -1.664013 64.275002
2.1260369 -1.6627181 64.224998
2.26491 -1.661424 64.175003
2.4045 -1.660777 64.150009
2.5449729 -1.660777 64.150009
2.685446 -1.660777 64.150009
2.8270199 -1.661424 64.175003
2.9675479 -1.661424 64.175003
3.1092861 -1.662071 64.200005
3.2498679 -1.662071 64.200005
3.390451 -1.662071 64.200005
3.5296581 -1.661424 64.175003
3.668756 -1.660777 64.150009
3.8062601 -1.659482 64.100006
3.9420049 -1.657541 64.025002
4.0790162 -1.6562459 63.974998
4.2158079 -1.654952 63.925003
4.3523822 -1.653657 63.875
4.4904938 -1.65301 63.850002
4.630311 -1.65301 63.850002
4.7701259 -1.65301 63.850002
4.9099422 -1.65301 63.850002
5.0517349 -1.653657 63.875
5.191606 -1.653657 63.875
5.3335638 -1.654305 63.900005
5.4756298 -1.654952 63.925003
5.6156101 -1.654952 63.925003
5.7578421 -1.655599 63.950001
5.8978758 -1.655599 63.950001
-7.4228091 -1.5192519 64.100006
-7.2625651 -1.5151041 63.925003
-7.103086 -1.510957 63.750004
-6.9225268 -1.502069 63.375004
-6.7436109 -1.493181 63.000004
-6.5768218 -1.486663 62.725002
-6.3676062 -1.470072 62.025005
-6.1212668 -1.444 60.924999
-5.9780278 -1.44163 60.825001
-5.8400321 -1.4404449 60.775005
-5.6999059 -1.438668 60.700005
-5.5601101 -1.43689 60.625004
-5.4228792 -1.4357049 60.575001
-5.2858682 -1.43452 60.525002
-5.149076 -1.4333349 60.475002
-5.0145769 -1.432742 60.450005
-4.880187 -1.43215 60.425003
-4.74787 -1.43215 60.425003
-4.617465 -1.432742 60.450005
-4.486948 -1.4333349 60.475002
-4.3599238 -1.435112 60.550003
-4.230824 -1.436298 60.600002
-4.1031971 -1.4380749 60.675003
-3.9736061 -1.43926 60.725002
-3.8422129 -1.439853 60.75
-3.712239 -1.441038 60.800003
-3.580574 -1.44163 60.825001
-3.4487979 -1.442223 60.849998
-3.3169141 -1.4428149 60.875004
-3.1849201 -1.443408 60.900002
-3.0528159 -1.444 60.924999
-2.921802 -1.445186 60.975002
-2.7917111 -1.446963 61.050003
-2.6612921 -1.448741 61.125004
-2.5315771 -1.451111 61.225002
-2.402405 -1.454074 61.350006
-2.27176 -1.456444 61.450005
-2.140677 -1.458814 61.550003
-2.0099721 -1.461776 61.674999
-1.898478 -1.480145 62.450005
-1.766665 -1.484293 62.625004
-1.633435 -1.487848 62.775005
-1.499547 -1.491403 62.925003
-1.3833981 -1.5151041 63.925003
-1.24439 -1.516289 63.974998
-1.1043 -1.516289 63.974998
-0.96383399 -1.515697 63.950001
-0.82379901 -1.515697 63.950001
-0.68403101 -1.516289 63.974998
-0.54415399 -1.5168819 64.000008
-0.40432599 -1.518067 64.050003
-0.26427799 -1.5192519 64.100006
-0.123963 -1.519845 64.125
0.016468 -1.5210299 64.175003
0.157057 -1.5216219 64.200005
0.297755 -1.522215 64.224998
0.43839201 -1.522215 64.224998
0.57925498 -1.522807 64.250008
0.71994698 -1.522807 64.250008
0.860973 -1.5233999 64.275002
1.0021091 -1.5239919 64.300003
1.1437989 -1.525177 64.350006
1.28471 -1.525177 64.350006
1.425621 -1.525177 64.350006
1.566532 -1.525177 64.350006
1.706116 -1.5239919 64.300003
1.845481 -1.522807 64.250008
1.984627 -1.5216219 64.200005
2.124382 -1.5210299 64.175003
2.263145 -1.519845 64.125
2.403563 -1.519845 64.125
2.5439811 -1.519845 64.125
2.6843989 -1.519845 64.125
2.8248169 -1.519845 64.125
2.965235 -1.519845 64.125
3.105654 -1.519845 64.125
3.2460721 -1.519845 64.125
3.3864901 -1.519845 64.125
3.525533 -1.5192519 64.100006
3.6644671 -1.5186599 64.075005
3.8032911 -1.518067 64.050003
3.9404659 -1.5168819 64.000008
4.0774231 -1.515697 63.950001
4.21416 -1.5145119 63.900005
4.350678 -1.513327 63.850002
4.4887362 -1.5127341 63.825005
4.6284981 -1.5127341 63.825005
4.768259 -1.5127341 63.825005
4.9099422 -1.513327 63.850002
5.0517349 -1.513919 63.875
5.191606 -1.513919 63.875
5.3335638 -1.5145119 63.900005
5.4756298 -1.5151041 63.925003
5.617806 -1.515697 63.950001
5.7600918 -1.516289 63.974998
5.9024882 -1.5168819 64.000008
-7.4170189 -1.377946 64.050003
-7.2739248 -1.377408 64.025002
-7.1114421 -1.373106 63.825005
-6.892488 -1.3575079 63.100006
-6.7141738 -1.3494411 62.725002
-6.547987 -1.343524 62.450005
-6.3265409 -1.325776 61.625004
-6.1187549 -1.310178 60.900002
-5.9755712 -1.308027 60.800003
-5.835227 -1.3064131 60.725002
-5.6952109 -1.3048 60.650002
-5.557817 -1.3037241 60.600002
-5.4206409 -1.302649 60.550003
-5.2836852 -1.301573 60.5
-5.149076 -1.301035 60.475002
-5.0145769 -1.3004971 60.450005
-4.880187 -1.2999589 60.425003
-4.74787 -1.2999589 60.425003
-4.617465 -1.3004971 60.450005
-4.4888029 -1.301573 60.5
-4.3599238 -1.302649 60.550003
-4.2325702 -1.304262 60.625004
-4.1031971 -1.305338 60.675003
-3.9752419 -1.306951 60.75
-3.8437951 -1.307489 60.775005
-3.7137649 -1.308565 60.825001
-3.5820451 -1.309103 60.849998
-3.4502151 -1.309641 60.875004
-3.3182759 -1.310178 60.900002
-3.1862271 -1.310716 60.924999
-3.0553219 -1.311792 60.975002
-2.9229989 -1.31233 61
-2.7928541 -1.313943 61.075001
-2.66238 -1.315557 61.150002
-2.5315771 -1.31717 61.225002
-2.4014261 -1.319322 61.325001
-2.27176 -1.322011 61.450005
-2.140677 -1.324162 61.550003
-2.0099721 -1.326851 61.674999
-1.893918 -1.340297 62.300003
-1.763844 -1.345138 62.525005
-1.630832 -1.3483649 62.675007
-1.497164 -1.3515919 62.825001
-1.363921 -1.355895 63.025005
-1.240986 -1.372568 63.800003
-1.102143 -1.373643 63.850002
-0.96195 -1.373106 63.825005
-0.82218897 -1.373106 63.825005
-0.68269497 -1.373643 63.850002
-0.54330403 -1.374719 63.900005
-0.403694 -1.375795 63.950001
-0.26386601 -1.376871 64.000008
-0.123818 -1.377946 64.050003
0.016449001 -1.379022 64.100006
0.156873 -1.37956 64.125
0.29729101 -1.37956 64.125
0.43770999 -1.37956 64.125
0.57835299 -1.380098 64.150009
0.718826 -1.380098 64.150009
0.85996902 -1.381173 64.200005
1.000941 -1.381711 64.224998
1.142022 -1.382249 64.250008
1.283213 -1.382787 64.275002
1.423959 -1.382787 64.275002
1.564098 -1.382249 64.250008
1.704126 -1.381711 64.224998
1.843327 -1.380635 64.175003
1.9830821 -1.380098 64.150009
2.1227269 -1.37956 64.125
2.2622631 -1.379022 64.100006
2.402626 -1.379022 64.100006
2.542989 -1.379022 64.100006
2.6833529 -1.379022 64.100006
2.8237159 -1.379022 64.100006
2.962924 -1.378484 64.075005
3.1032319 -1.378484 64.075005
3.243541 -1.378484 64.075005
3.382529 -1.377946 64.050003
3.522783 -1.377946 64.050003
3.661607 -1.377408 64.025002
3.8003221 -1.376871 64.000008
3.9389269 -1.376333 63.974998
4.075829 -1.375257 63.925003
4.21416 -1.374719 63.900005
4.350678 -1.373643 63.850002
4.4887362 -1.373106 63.825005
4.6284981 -1.373106 63.825005
4.768259 -1.373106 63.825005
4.9099422 -1.373643 63.850002
5.0517349 -1.374181 63.875
5.1936378 -1.374719 63.900005
5.33565 -1.375257 63.925003
5.4756298 -1.375257 63.925003
5.6200018 -1.376333 63.974998
5.7623429 -1.376871 64.000008
5.9047928 -1.377408 64.025002
6.14885 -1.401073 65.125
-7.5631728 -1.2387919 64.100006
-7.4170189 -1.237825 64.050003
-7.2739248 -1.237342 64.025002
-7.0640879 -1.225263 63.400002
-6.8487959 -1.211735 62.700005
-6.6954422 -1.208836 62.550003
-6.5348811 -1.204488 62.325001
-6.2829099 -1.182747 61.200005
-6.1112199 -1.175499 60.825001
-5.9682002 -1.1735671 60.725002
-5.8304219 -1.1726 60.675003
-5.690516 -1.171151 60.600002
-5.5532308 -1.170185 60.550003
-5.4184031 -1.169701 60.525002
-5.2836852 -1.1692179 60.5
-5.149076 -1.168735 60.475002
-5.0145769 -1.168252 60.450005
-4.880187 -1.167769 60.425003
-4.74787 -1.167769 60.425003
-4.617465 -1.168252 60.450005
-4.4888029 -1.1692179 60.5
-4.3617239 -1.170668 60.575001
-4.2343149 -1.172117 60.650002
-4.104888 -1.173084 60.700005
-3.9752419 -1.17405 60.75
-3.845376 -1.175016 60.800003
-3.715292 -1.175982 60.849998
-3.5835171 -1.176466 60.875004
-3.451632 -1.176949 60.900002
-3.3210011 -1.177915 60.950005
-3.1888421 -1.178398 60.975002
-3.057827 -1.179364 61.025005
-2.925395 -1.179848 61.050003
-2.793997 -1.180814 61.099998
-2.6634679 -1.182263 61.174999
-2.5326109 -1.183713 61.25
-2.4014261 -1.1851619 61.325001
-2.27176 -1.187578 61.450005
-2.140677 -1.1895109 61.550003
-2.010787 -1.192409 61.700005
-1.886318 -1.199173 62.050003
-1.760318 -1.205938 62.400002
-1.628881 -1.209803 62.600006
-1.495973 -1.213185 62.775005
-1.3612159 -1.2156 62.900002
-1.226884 -1.218982 63.075001
-1.0965329 -1.227679 63.525002
-0.95931202 -1.230095 63.650002
-0.82057899 -1.231061 63.700001
-0.68162602 -1.232028 63.750004
-0.54266697 -1.233477 63.825005
-0.40322101 -1.2344429 63.875
-0.263556 -1.23541 63.925003
-0.123673 -1.236376 63.974998
0.01643 -1.237342 64.025002
0.156629 -1.237342 64.025002
0.29694399 -1.237825 64.050003
0.43719801 -1.237825 64.050003
0.57767701 -1.238308 64.075005
0.71826601 -1.2387919 64.100006
0.859299 -1.239758 64.150009
1.0001611 -1.2402411 64.175003
1.141133 -1.240724 64.200005
1.282215 -1.241207 64.224998
1.422298 -1.240724 64.200005
1.56288 -1.240724 64.200005
1.702799 -1.2402411 64.175003
1.8418911 -1.239275 64.125
1.982309 -1.239275 64.125
2.1218989 -1.2387919 64.100006
2.2622631 -1.2387919 64.100006
2.402626 -1.2387919 64.100006
2.542989 -1.2387919 64.100006
2.682307 -1.238308 64.075005
2.8226149 -1.238308 64.075005
2.961767 -1.237825 64.050003
3.100811 -1.237342 64.025002
3.2397439 -1.236859 64.000008
3.379889 -1.236859 64.000008
3.5186579 -1.236376 63.974998
3.6587479 -1.236376 63.974998
3.7988369 -1.236376 63.974998
3.937387 -1.235893 63.950001
4.075829 -1.23541 63.925003
4.21416 -1.234926 63.900005
4.3523822 -1.2344429 63.875
4.4904938 -1.23396 63.850002
4.630311 -1.23396 63.850002
4.7701259 -1.23396 63.850002
4.9099422 -1.23396 63.850002
5.0517349 -1.2344429 63.875
5.1936378 -1.234926 63.900005
5.33565 -1.23541 63.925003
5.4777722 -1.235893 63.950001
5.6200018 -1.236376 63.974998
5.7623429 -1.236859 64.000008
5.9047928 -1.237342 64.025002
6.0544338 -1.239275 64.125
-7.5631728 -1.098561 64.100006
-7.4199152 -1.098133 64.075005
-7.2767649 -1.0977041 64.050003
-6.986094 -1.074568 62.700005
-6.8324108 -1.071997 62.550003
-6.6900892 -1.0711401 62.5
-6.540123 -1.068998 62.375004
-6.288043 -1.0497169 61.25
-6.1036839 -1.0411479 60.75
-5.963285 -1.039863 60.675003
-5.8256178 -1.039006 60.625004
-5.6858211 -1.037721 60.550003
-5.5509381 -1.037292 60.525002
-5.4161649 -1.036864 60.5
-5.2815008 -1.036435 60.475002
-5.1469469 -1.036007 60.450005
-5.0125031 -1.035578 60.425003
-4.880187 -1.035578 60.425003
-4.74787 -1.035578 60.425003
-4.617465 -1.036007 60.450005
-4.4888029 -1.036864 60.5
-4.3617239 -1.038149 60.575001
-4.2343149 -1.039435 60.650002
-4.1065788 -1.04072 60.725002
-3.9768779 -1.041577 60.775005
-3.846957 -1.042434 60.825001
-3.7168181 -1.043291 60.875004
-3.5864601 -1.044147 60.924999
-3.4544661 -1.044576 60.950005
-3.323725 -1.045433 61
-3.191457 -1.045861 61.025005
-3.060333 -1.046718 61.075001
-2.9277911 -1.047147 61.099998
-2.796283 -1.048004 61.150002
-2.664557 -1.048861 61.200005
-2.5326109 -1.0497169 61.25
-2.4014261 -1.051003 61.325001
-2.2708361 -1.052717 61.424999
-2.140677 -1.054859 61.550003
-2.011601 -1.057858 61.725002
-1.884038 -1.062143 61.975002
-1.755381 -1.066427 62.225002
-1.626279 -1.0711401 62.5
-1.494781 -1.074996 62.725002
-1.360134 -1.077139 62.850006
-1.225425 -1.0797091 63.000004
-1.0904911 -1.082709 63.175003
-0.95592099 -1.086993 63.425003
-0.81864601 -1.0891351 63.550003
-0.680556 -1.090849 63.650002
-0.541816 -1.092134 63.725002
-0.40274701 -1.09342 63.800003
-0.26335001 -1.094705 63.875
-0.123576 -1.095562 63.925003
0.016410001 -1.095991 63.950001
0.156445 -1.095991 63.950001
0.29648 -1.095991 63.950001
0.43668601 -1.096419 63.974998
0.57700098 -1.096848 64.000008
0.71770501 -1.0977041 64.050003
0.85862899 -1.098561 64.100006
0.99977201 -1.099418 64.150009
1.140689 -1.099847 64.175003
1.281716 -1.100275 64.200005
1.422298 -1.100275 64.200005
1.562272 -1.099847 64.175003
1.702136 -1.099418 64.150009
1.8418911 -1.09899 64.125
1.982309 -1.09899 64.125
2.1227269 -1.09899 64.125
2.263145 -1.09899 64.125
2.403563 -1.09899 64.125
2.542989 -1.098561 64.100006
2.682307 -1.098133 64.075005
2.8215129 -1.0977041 64.050003
2.9606121 -1.097276 64.025002
3.0996001 -1.096848 64.000008
3.2384789 -1.096419 63.974998
3.377248 -1.095991 63.950001
3.517283 -1.095991 63.950001
3.6573181 -1.095991 63.950001
3.797353 -1.095991 63.950001
3.937387 -1.095991 63.950001
4.075829 -1.095562 63.925003
4.2158079 -1.095562 63.925003
4.354085 -1.095134 63.900005
4.4922519 -1.094705 63.875
4.630311 -1.094277 63.850002
4.7701259 -1.094277 63.850002
4.9099422 -1.094277 63.850002
5.0517349 -1.094705 63.875
5.191606 -1.094705 63.875
5.3335638 -1.095134 63.900005
5.4756298 -1.095562 63.925003
5.617806 -1.095991 63.950001
5.7623429 -1.096848 64.000008
5.9047928 -1.097276 64.025002
6.0497141 -1.098133 64.075005
6.2793822 -1.113986 65
-7.5602241 -0.95795703 64.075005
-7.4199152 -0.95795703 64.075005
-7.2739248 -0.95721 64.025002
-6.9721661 -0.93553102 62.575001
-6.8269491 -0.93440998 62.5
-6.6847382 -0.93366301 62.450005
-6.540123 -0.93254101 62.375004
-6.3162751 -0.919833 61.525005
-6.1011729 -0.90787297 60.725002
-5.9583721 -0.90637797 60.625004
-5.8208132 -0.90562999 60.575001
-5.6811261 -0.90450901 60.5
-5.5463529 -0.90413499 60.475002
-5.4139271 -0.90413499 60.475002
-5.2793179 -0.90376198 60.450005
-5.1448178 -0.90338802 60.425003
-5.0104289 -0.903014 60.400002
-4.8781681 -0.903014 60.400002
-4.7459068 -0.903014 60.400002
-4.6155548 -0.90338802 60.425003
-4.486948 -0.90413499 60.475002
-4.3599238 -0.90525699 60.550003
-4.2343149 -0.90675199 60.650002
-4.1065788 -0.90787297 60.725002
-3.978513 -0.90899402 60.800003
-3.8501201 -0.91011602 60.875004
-3.719871 -0.91086298 60.924999
-3.5894041 -0.91161102 60.975002
-3.4587171 -0.91235799 61.025005
-3.327811 -0.91310602 61.075001
-3.195379 -0.91347897 61.099998
-3.064091 -0.91422701 61.150002
-2.931385 -0.91460103 61.174999
-2.7985699 -0.91497499 61.200005
-2.6656449 -0.91534799 61.225002
-2.5336449 -0.91609597 61.275005
-2.402405 -0.91721702 61.350006
-2.2708361 -0.918338 61.424999
-2.140677 -0.92020702 61.550003
-2.011601 -0.92282301 61.725002
-1.881758 -0.92544001 61.900002
-1.753265 -0.929178 62.150002
-1.625628 -0.93403602 62.475002
-1.494185 -0.93739998 62.700005
-1.359593 -0.93926901 62.825001
-1.224939 -0.94151199 62.975002
-1.089628 -0.94375402 63.125004
-0.95403701 -0.94637102 63.300003
-0.81735802 -0.94861299 63.450005
-0.67948699 -0.95010799 63.550003
-0.541179 -0.951603 63.650002
-0.40227401 -0.95272499 63.725002
-0.26304099 -0.95384598 63.800003
-0.123431 -0.95459402 63.850002
0.016385 -0.95459402 63.850002
0.156262 -0.95496702 63.875
0.296132 -0.95496702 63.875
0.43617401 -0.95534098 63.900005
0.57655001 -0.95608902 63.950001
0.71714503 -0.95683599 64.000008
0.85829401 -0.95795703 64.075005
0.99977201 -0.95907903 64.150009
1.141133 -0.95982599 64.200005
1.282215 -0.96020001 64.224998
1.422298 -0.95982599 64.200005
1.56288 -0.95982599 64.200005
1.702799 -0.95945197 64.175003
1.842609 -0.95907903 64.150009
1.9830821 -0.95907903 64.150009
2.124382 -0.95945197 64.175003
2.26491 -0.95945197 64.175003
2.4045 -0.95907903 64.150009
2.5439811 -0.95870501 64.125
2.6833529 -0.95833099 64.100006
2.8215129 -0.95758402 64.050003
2.959455 -0.95683599 64.000008
3.0983889 -0.95646203 63.974998
3.2359481 -0.955715 63.925003
3.3759279 -0.955715 63.925003
3.515908 -0.955715 63.925003
3.6558881 -0.955715 63.925003
3.7958679 -0.955715 63.925003
3.935848 -0.955715 63.925003
4.075829 -0.955715 63.925003
4.2158079 -0.955715 63.925003
4.354085 -0.95534098 63.900005
4.4940109 -0.95534098 63.900005
4.632123 -0.95496702 63.875
4.7701259 -0.95459402 63.850002
4.9099422 -0.95459402 63.850002
5.049758 -0.95459402 63.850002
5.191606 -0.95496702 63.875
5.3314772 -0.95496702 63.875
5.4734888 -0.95534098 63.900005
5.6156101 -0.955715 63.925003
5.7600918 -0.95646203 63.974998
5.9047928 -0.95721 64.025002
6.0473518 -0.95758402 64.050003
6.2407398 -0.96580601 64.600006
6.4241862 -0.97215998 65.025002
-7.703537 -0.81810099 64.100006
-7.5602241 -0.81778198 64.075005
-7.4199152 -0.81778198 64.075005
-7.1148701 -0.79927599 62.625004
-6.9693799 -0.79831803 62.550003
-6.8242178 -0.79736102 62.475002
-6.6820621 -0.79672301 62.425007
-6.5348811 -0.79544699 62.325001
-6.3291082 -0.78683197 61.650002
-6.1112199 -0.77630299 60.825001
-5.9534569 -0.773112 60.575001
-5.8160081 -0.77247399 60.525002
-5.6787782 -0.77183598 60.475002
-5.5440602 -0.77151603 60.450005
-5.4116888 -0.77151603 60.450005
-5.2771339 -0.77119702 60.425003
-5.1426902 -0.77087802 60.400002
-5.0083551 -0.77055901 60.375004
-4.8761492 -0.77055901 60.375004
-4.7419782 -0.77024001 60.350002
-4.6117358 -0.77055901 60.375004
-4.4850941 -0.77151603 60.450005
-4.3581228 -0.77247399 60.525002
-4.2343149 -0.77406901 60.650002
-4.1082692 -0.77534503 60.75
-3.9817851 -0.776622 60.849998
-3.851701 -0.77726001 60.900002
-3.722924 -0.77821702 60.975002
-3.5923469 -0.77885503 61.025005
-3.46155 -0.77949297 61.075001
-3.331898 -0.78044999 61.150002
-3.200609 -0.78108901 61.200005
-3.0678489 -0.78140801 61.225002
-2.934979 -0.78172702 61.25
-2.802 -0.78204602 61.275005
-2.6678219 -0.78204602 61.275005
-2.534678 -0.78236502 61.300003
-2.402405 -0.78300297 61.350006
-2.27176 -0.78427899 61.450005
-2.140677 -0.78555602 61.550003
-2.011601 -0.78778899 61.725002
-1.8825181 -0.79034197 61.925007
-1.75397 -0.79353201 62.175007
-1.625628 -0.79736102 62.475002
-1.492994 -0.799595 62.650002
-1.3590519 -0.80150902 62.800003
-1.224452 -0.803424 62.950005
-1.088765 -0.80501902 63.075001
-0.95290703 -0.80693299 63.225002
-0.81607002 -0.80852902 63.350002
-0.67868501 -0.81012398 63.475002
-0.54054099 -0.8114 63.575005
-0.40195799 -0.81267703 63.675003
-0.262732 -0.81331497 63.725002
-0.123238 -0.81363398 63.750004
0.016364999 -0.81395298 63.775002
0.15601701 -0.81395298 63.775002
0.29566899 -0.81395298 63.775002
0.435491 -0.81427199 63.800003
0.57587397 -0.815229 63.875
0.716865 -0.81650603 63.974998
0.85829401 -0.81778198 64.075005
1.0001611 -0.819058 64.175003
1.142022 -0.82001501 64.250008
1.283213 -0.82033402 64.275002
1.423406 -0.82001501 64.250008
1.564098 -0.82001501 64.250008
1.704126 -0.81969601 64.224998
1.844763 -0.81969601 64.224998
1.9854 -0.81969601 64.224998
2.1260369 -0.81969601 64.224998
2.266674 -0.81969601 64.224998
2.407311 -0.81969601 64.224998
2.545965 -0.819058 64.175003
2.6843989 -0.81841999 64.125
2.8215129 -0.81746298 64.050003
2.959455 -0.81682497 64.000008
3.097178 -0.81618702 63.950001
3.2359481 -0.81586701 63.925003
3.374608 -0.815548 63.900005
3.514533 -0.815548 63.900005
3.654458 -0.815548 63.900005
3.794384 -0.815548 63.900005
3.935848 -0.81586701 63.925003
4.075829 -0.81586701 63.925003
4.2158079 -0.81586701 63.925003
4.3557892 -0.81586701 63.925003
4.4940109 -0.815548 63.900005
4.632123 -0.815229 63.875
4.7701259 -0.81490999 63.850002
4.9099422 -0.81490999 63.850002
5.049758 -0.81490999 63.850002
5.1895738 -0.81490999 63.850002
5.32939 -0.81490999 63.850002
5.4713469 -0.815229 63.875
5.6134148 -0.815548 63.900005
5.75559 -0.81586701 63.925003
5.9001818 -0.81650603 63.974998
6.0426321 -0.81682497 64.000008
6.190022 -0.81778198 64.075005
6.4291272 -0.83054501 65.075005
-7.703537 -0.67787099 64.100006
-7.5602241 -0.67760599 64.075005
-7.402544 -0.67602003 63.925003
-7.112031 -0.66200799 62.600006
-6.9665952 -0.66121501 62.525005
-6.8214879 -0.66042203 62.450005
-6.6767101 -0.65962899 62.375004
-6.5034261 -0.655927 62.025005
-6.3265409 -0.65169698 61.625004
-6.1187549 -0.64402997 60.900002
-5.9510002 -0.640329 60.550003
-5.8160081 -0.640064 60.525002
-5.6764312 -0.63927102 60.450005
-5.5440602 -0.63927102 60.450005
-5.409451 -0.63900697 60.425003
-5.2771339 -0.63900697 60.425003
-5.1426902 -0.63874203 60.400002
-5.0083551 -0.63847798 60.375004
-4.8721099 -0.63794899 60.325005
-4.7400131 -0.63794899 60.325005
-4.6079159 -0.63794899 60.325005
-4.4813838 -0.63874203 60.400002
-4.3563228 -0.63980001 60.5
-4.2343149 -0.64138597 60.650002
-4.11165 -0.64297301 60.800003
-3.9834211 -0.64376599 60.875004
-3.8564439 -0.64482301 60.975002
-3.7259769 -0.64535201 61.025005
-3.5967619 -0.64614499 61.099998
-3.4672179 -0.64693803 61.174999
-3.3373461 -0.64773101 61.25
-3.2058389 -0.64826 61.300003
-3.07286 -0.648525 61.325001
-2.9397709 -0.64878899 61.350006
-2.804286 -0.648525 61.325001
-2.671088 -0.64878899 61.350006
-2.536746 -0.64878899 61.350006
-2.404362 -0.64931798 61.400002
-2.2726841 -0.65011102 61.475002
-2.141547 -0.65116799 61.575001
-2.0124159 -0.65301901 61.75
-1.884798 -0.65566301 62
-1.757497 -0.65883499 62.300003
-1.626279 -0.66095001 62.5
-1.492398 -0.66227198 62.625004
-1.35797 -0.66359401 62.750008
-1.22348 -0.66518098 62.900002
-1.088334 -0.666767 63.050003
-0.95215303 -0.66808897 63.175003
-0.81574798 -0.66967499 63.325005
-0.67815101 -0.67073202 63.425003
-0.54011601 -0.67179 63.525002
-0.401485 -0.67258298 63.600002
-0.26242301 -0.67311198 63.650002
-0.123093 -0.67337602 63.675003
0.016346 -0.67364103 63.700001
0.155834 -0.67364103 63.700001
0.29532099 -0.67364103 63.700001
0.43497899 -0.67390501 63.725002
0.57519799 -0.674698 63.800003
0.71602499 -0.67575598 63.900005
0.85896403 -0.67813498 64.125
1.00133 -0.67945701 64.250008
1.143355 -0.68024999 64.325005
1.28471 -0.68051499 64.350006
1.425621 -0.68051499 64.350006
1.565923 -0.68024999 64.325005
1.706779 -0.68024999 64.325005
1.846917 -0.679986 64.300003
1.988492 -0.68024999 64.325005
2.129348 -0.68024999 64.325005
2.269321 -0.679986 64.300003
2.4091859 -0.679721 64.275002
2.5479479 -0.67919302 64.224998
2.685446 -0.67839998 64.150009
2.8226149 -0.67760599 64.075005
2.959455 -0.67681301 64.000008
3.095968 -0.67602003 63.925003
3.2346821 -0.67575598 63.900005
3.373287 -0.67549098 63.875
3.5131581 -0.67549098 63.875
3.653028 -0.67549098 63.875
3.794384 -0.67575598 63.900005
3.934309 -0.67575598 63.900005
4.075829 -0.67602003 63.925003
4.2158079 -0.67602003 63.925003
4.354085 -0.67575598 63.900005
4.4940109 -0.67575598 63.900005
4.632123 -0.67549098 63.875
4.7701259 -0.67522699 63.850002
4.90802 -0.674963 63.825005
5.047781 -0.674963 63.825005
5.187542 -0.674963 63.825005
5.3273039 -0.674963 63.825005
5.4692059 -0.67522699 63.850002
5.6090221 -0.67522699 63.850002
5.7533398 -0.67575598 63.900005
5.8955712 -0.67602003 63.925003
6.0402708 -0.67654902 63.974998
6.190022 -0.67760599 64.075005
6.4241862 -0.68765301 65.025002
6.594347 -0.690561 65.300003
-8.0335732 -0.550641 65.650002
-7.7065411 -0.53785002 64.125
-7.5572739 -0.53722101 64.050003
-7.2838488 -0.52757502 62.900002
-7.1177101 -0.52547902 62.650002
-6.9665952 -0.52442998 62.525005
-6.8187571 -0.52359098 62.425007
-6.64995 -0.52107501 62.125004
-6.4745908 -0.51792997 61.75
-6.3137078 -0.51583302 61.5
-6.1011729 -0.50933301 60.725002
-5.9534569 -0.50807399 60.575001
-5.8160081 -0.50765502 60.525002
-5.6787782 -0.507236 60.475002
-5.5440602 -0.50702602 60.450005
-5.409451 -0.50681603 60.425003
-5.274951 -0.506607 60.400002
-5.1405621 -0.50639701 60.375004
-5.0042081 -0.50597799 60.325005
-4.870091 -0.505768 60.300003
-4.736084 -0.50555801 60.275002
-4.6040969 -0.50555801 60.275002
-4.4758191 -0.50597799 60.325005
-4.349123 -0.506607 60.400002
-4.2360611 -0.50891298 60.675003
-4.1150322 -0.51038098 60.849998
-3.9883289 -0.51121998 60.950005
-3.859606 -0.51184899 61.025005
-3.730556 -0.51247799 61.099998
-3.601177 -0.513107 61.174999
-3.4728861 -0.513946 61.275005
-3.3427949 -0.514575 61.350006
-3.2110691 -0.51499403 61.400002
-3.0778699 -0.51520401 61.424999
-2.9433651 -0.51520401 61.424999
-2.8088591 -0.51520401 61.424999
-2.673265 -0.51499403 61.400002
-2.5398469 -0.51520401 61.424999
-2.406321 -0.515414 61.450005
-2.274533 -0.51604301 61.525005
-2.143286 -0.51688099 61.625004
-2.0156751 -0.51876903 61.850006
-1.890878 -0.52170402 62.200005
-1.759612 -0.52317202 62.375004
-1.626279 -0.52421999 62.5
-1.492398 -0.52526897 62.625004
-1.357429 -0.52610803 62.725002
-1.222507 -0.527156 62.850006
-1.087471 -0.52841401 63.000004
-0.95139998 -0.52946299 63.125004
-0.81510401 -0.53072101 63.275002
-0.677616 -0.53156 63.375004
-0.53969097 -0.53239799 63.475002
-0.401012 -0.53281802 63.525002
-0.262113 -0.53323698 63.575005
-0.122948 -0.53344703 63.600002
0.016321 -0.53344703 63.600002
0.15565 -0.533656 63.625
0.29497299 -0.533656 63.625
0.43463799 -0.53407598 63.675003
0.574296 -0.53428501 63.700001
0.71518397 -0.53533399 63.825005
0.86063802 -0.538899 64.250008
1.002889 -0.53973699 64.350006
1.144688 -0.54015702 64.400009
1.286208 -0.54036599 64.425003
1.427283 -0.54036599 64.425003
1.567749 -0.54015702 64.400009
1.708769 -0.54015702 64.400009
1.84979 -0.54015702 64.400009
1.99081 -0.54015702 64.400009
2.1310029 -0.53994697 64.375
2.2719679 -0.53994697 64.375
2.4110601 -0.53952801 64.325005
2.5489399 -0.538899 64.250008
2.686492 -0.53827 64.175003
2.8226149 -0.537431 64.075005
2.959455 -0.53680199 64.000008
3.095968 -0.53617299 63.925003
3.2346821 -0.535963 63.900005
3.3719671 -0.53554398 63.850002
3.5117829 -0.53554398 63.850002
3.6515989 -0.53554398 63.850002
3.7928989 -0.53575301 63.875
3.93277 -0.53575301 63.875
4.074234 -0.535963 63.900005
4.21416 -0.535963 63.900005
4.354085 -0.535963 63.900005
4.4940109 -0.535963 63.900005
4.632123 -0.53575301 63.875
4.7701259 -0.53554398 63.850002
4.90802 -0.53533399 63.825005
5.045804 -0.535124 63.800003
5.1855102 -0.535124 63.800003
5.3252158 -0.535124 63.800003
5.4649229 -0.535124 63.800003
5.6068258 -0.53533399 63.825005
5.7488379 -0.53554398 63.850002
5.8932648 -0.535963 63.900005
6.0355511 -0.53617299 63.925003
6.1779461 -0.53638202 63.950001
6.4241862 -0.54539901 65.025002
6.6019201 -0.54833502 65.375
-8.1742172 -0.406865 65.625008
-8.0213356 -0.4064 65.550003
-7.7155552 -0.39803001 64.200005
-7.5189271 -0.39508501 63.725002
-7.289639 -0.39028001 62.950005
-7.1205511 -0.38857499 62.675007
-6.9665952 -0.38764599 62.525005
-6.7941809 -0.385631 62.200005
-6.6124849 -0.38299599 61.775005
-6.4667268 -0.38237599 61.674999
-6.2983088 -0.38036099 61.350006
-6.096149 -0.376176 60.675003
-5.955914 -0.37571099 60.600002
-5.8160081 -0.37524599 60.525002
-5.6787782 -0.37493601 60.475002
-5.5440602 -0.37478101 60.450005
-5.409451 -0.37462601 60.425003
-5.274951 -0.37447101 60.400002
-5.138433 -0.37416101 60.350002
-5.0021329 -0.373851 60.300003
-4.868072 -0.373696 60.275002
-4.7321558 -0.373386 60.225002
-4.5983682 -0.37323099 60.200005
-4.4684 -0.373386 60.225002
-4.3383222 -0.373541 60.250004
-4.230824 -0.37571099 60.600002
-4.1217952 -0.37788099 60.950005
-3.993237 -0.378346 61.025005
-3.8643489 -0.378811 61.099998
-3.7351351 -0.37927601 61.174999
-3.607064 -0.37989599 61.275005
-3.478554 -0.38051599 61.375004
-3.3468821 -0.380826 61.424999
-3.2149911 -0.381136 61.475002
-3.0816281 -0.381291 61.5
-2.9469581 -0.381291 61.5
-2.812288 -0.381291 61.5
-2.6765299 -0.381136 61.475002
-2.542948 -0.381291 61.5
-2.4092569 -0.381446 61.525005
-2.2773049 -0.38191101 61.600006
-2.1476331 -0.38284099 61.75
-2.021378 -0.38454601 62.025005
-1.893918 -0.386251 62.300003
-1.761728 -0.38718101 62.450005
-1.62758 -0.38780099 62.550003
-1.492398 -0.38826501 62.625004
-1.357429 -0.38888499 62.725002
-1.222021 -0.389505 62.825001
-1.086607 -0.39028001 62.950005
-0.95064598 -0.39105499 63.075001
-0.81445998 -0.391985 63.225002
-0.677082 -0.39260501 63.325005
-0.53905302 -0.39307001 63.400002
-0.40069601 -0.39353499 63.475002
-0.26180401 -0.39368999 63.500004
-0.122803 -0.39384499 63.525002
0.016308 -0.39399999 63.550003
0.155467 -0.39399999 63.550003
0.29474199 -0.394155 63.575005
0.43412599 -0.39431 63.600002
0.57384503 -0.39462 63.650002
0.71490401 -0.39555001 63.800003
0.86298299 -0.399425 64.425003
1.004447 -0.39958 64.450005
1.146021 -0.399735 64.475006
1.2877049 -0.39989001 64.500008
1.428944 -0.39989001 64.500008
1.569575 -0.399735 64.475006
1.71076 -0.399735 64.475006
1.851226 -0.39958 64.450005
1.9923559 -0.39958 64.450005
2.132658 -0.399425 64.425003
2.272851 -0.39927 64.400009
2.4119971 -0.39895999 64.350006
2.549932 -0.39849499 64.275002
2.6875391 -0.39803001 64.200005
2.8237159 -0.39741001 64.100006
2.959455 -0.39679 64.000008
3.095968 -0.39632499 63.925003
3.233417 -0.39601499 63.875
3.3719671 -0.39585999 63.850002
3.5104079 -0.39570501 63.825005
3.6501689 -0.39570501 63.825005
3.7899301 -0.39570501 63.825005
3.931231 -0.39585999 63.850002
4.0726399 -0.39601499 63.875
4.21416 -0.39616999 63.900005
4.354085 -0.39616999 63.900005
4.4940109 -0.39616999 63.900005
4.632123 -0.39601499 63.875
4.7701259 -0.39585999 63.850002
4.90802 -0.39570501 63.825005
5.045804 -0.39555001 63.800003
5.1855102 -0.39555001 63.800003
5.3231301 -0.39539501 63.775002
5.4627819 -0.39539501 63.775002
5.6024332 -0.39539501 63.775002
5.7443361 -0.39555001 63.800003
5.8863478 -0.39570501 63.825005
6.02847 -0.39585999 63.850002
6.170701 -0.39601499 63.875
6.399487 -0.401595 64.775002
6.5993962 -0.40516001 65.349998
-8.1679888 -0.263098 65.575005
-7.9295578 -0.25998899 64.800003
-7.7065411 -0.25727999 64.125
-7.4658308 -0.25387001 63.275002
-7.2983241 -0.25286701 63.025005
-7.1319122 -0.25186399 62.775005
-6.9582381 -0.25055999 62.450005
-6.764142 -0.248454 61.925007
-6.607132 -0.247651 61.725002
-6.4588642 -0.24715 61.600006
-6.2572451 -0.244542 60.950005
-6.096149 -0.24343801 60.675003
-5.955914 -0.243137 60.600002
-5.8184099 -0.242937 60.550003
-5.6787782 -0.242636 60.475002
-5.5440602 -0.24253599 60.450005
-5.409451 -0.24243499 60.425003
-5.272768 -0.242235 60.375004
-5.138433 -0.242134 60.350002
-5.0021329 -0.241934 60.300003
-4.8640342 -0.241633 60.225002
-4.7282271 -0.241432 60.175003
-4.5945492 -0.24133199 60.150002
-4.4628348 -0.24133199 60.150002
-4.331121 -0.24133199 60.150002
-4.202899 -0.241533 60.200005
-4.1285572 -0.24494299 61.050003
-3.9981439 -0.24514399 61.099998
-3.8690929 -0.245444 61.174999
-3.741241 -0.245846 61.275005
-3.6129501 -0.24624699 61.375004
-3.482805 -0.246548 61.450005
-3.3523309 -0.246849 61.525005
-3.220221 -0.247049 61.575001
-3.0866389 -0.24715 61.600006
-2.950552 -0.247049 61.575001
-2.8157179 -0.247049 61.575001
-2.679795 -0.246949 61.550003
-2.5450161 -0.246949 61.550003
-2.412194 -0.24715 61.600006
-2.2800779 -0.24745101 61.674999
-2.1528499 -0.248353 61.900002
-2.0278959 -0.24965701 62.225002
-1.898478 -0.25055999 62.450005
-1.763844 -0.25086099 62.525005
-1.628881 -0.25116199 62.600006
-1.492994 -0.251362 62.650002
-1.357429 -0.251663 62.725002
-1.221535 -0.251964 62.800003
-1.085744 -0.25236499 62.900002
-0.949516 -0.252767 63.000004
-0.81349301 -0.25336799 63.150002
-0.67628002 -0.25376999 63.250004
-0.53862798 -0.25417101 63.350002
-0.400222 -0.25437099 63.400002
-0.26159799 -0.254572 63.450005
-0.122706 -0.25467199 63.475002
0.016287999 -0.25467199 63.475002
0.15534399 -0.25477299 63.500004
0.29451001 -0.25487301 63.525002
0.43395501 -0.25507399 63.575005
0.57362002 -0.255274 63.625
0.722188 -0.25858399 64.450005
0.86398703 -0.25878501 64.500008
1.0056159 -0.258885 64.525002
1.14691 -0.258885 64.525002
1.288703 -0.258986 64.550003
1.429498 -0.258885 64.525002
1.570792 -0.258885 64.525002
1.712086 -0.258885 64.525002
1.852662 -0.25878501 64.500008
1.9931279 -0.25868499 64.475006
2.1334851 -0.25858399 64.450005
2.2737329 -0.25848401 64.425003
2.4129341 -0.25828299 64.375
2.5509241 -0.25798199 64.300003
2.6875391 -0.257581 64.200005
2.8237159 -0.25718001 64.100006
2.9606121 -0.256879 64.025002
3.095968 -0.25647801 63.925003
3.233417 -0.25627699 63.875
3.370647 -0.25607699 63.825005
3.509033 -0.25597599 63.800003
3.6487391 -0.25597599 63.800003
3.788445 -0.25597599 63.800003
3.9296911 -0.25607699 63.825005
4.0710459 -0.25617701 63.850002
4.2125111 -0.25627699 63.875
4.354085 -0.256378 63.900005
4.4940109 -0.256378 63.900005
4.632123 -0.25627699 63.875
4.7701259 -0.25617701 63.850002
4.90802 -0.25607699 63.825005
5.047781 -0.25607699 63.825005
5.1855102 -0.25597599 63.800003
5.3231301 -0.255876 63.775002
5.46064 -0.25577599 63.750004
5.6002369 -0.25577599 63.750004
5.7398338 -0.25577599 63.750004
5.8817372 -0.255876 63.775002
6.0213881 -0.255876 63.775002
6.163455 -0.25597599 63.800003
6.3081021 -0.25617701 63.850002
6.5741501 -0.26119199 65.100006
6.7631311 -0.26299801 65.550003
-8.1337347 -0.119139 65.300003
-7.8867288 -0.117588 64.450005
-7.6554651 -0.11622 63.700001
-7.4599319 -0.115353 63.225002
-7.3041129 -0.11508 63.075001
-7.1290722 -0.114487 62.750008
-6.9387398 -0.11362 62.275005
-6.7586799 -0.11289 61.875004
-6.6017809 -0.112525 61.674999
-6.432651 -0.111932 61.350006
-6.2392788 -0.110883 60.775005
-6.0986609 -0.110747 60.700005
-5.9583721 -0.11061 60.625004
-5.8184099 -0.110473 60.550003
-5.6811261 -0.110382 60.5
-5.5440602 -0.11029 60.450005
-5.4072132 -0.110199 60.400002
-5.272768 -0.110154 60.375004
-5.1363039 -0.110062 60.325005
-5.0000591 -0.109971 60.275002
-4.8640342 -0.10988 60.225002
-4.726263 -0.109743 60.150002
