ply
format ascii 1.0
comment PCL generated
element vertex 1586
property float x
property float y
property float z
element face 0
element camera 0
property float view_px
property float view_py
property float view_pz
property float x_axisx
property float x_axisy
property float x_axisz
property float y_axisx
property float y_axisy
property float y_axisz
property float z_axisx
property float z_axisy
property float z_axisz
property float focal
property float scalex
property float scaley
property float centerx
property float centery
property int viewportx
property int viewporty
property float k1
property float k2
end_header
-6.0719242 6.1081848 67.825005
-5.9190369 6.103683 67.775002
-5.7663689 6.0991802 67.725006
-5.615994 6.0969291 67.700005
-5.4697671 6.0991802 67.725006
-5.3234301 6.1014309 67.75
-5.1808019 6.1081848 67.825005
-5.0341382 6.1104369 67.850006
-4.889163 6.1149402 67.900002
-4.7422242 6.1171908 67.925003
-4.5951748 6.1194429 67.950005
-4.4480171 6.1216941 67.975006
-4.3007488 6.1239462 68
-4.1533728 6.1261969 68.025002
-4.0073581 6.1307001 68.075005
-3.8639579 6.1397061 68.175003
-3.755537 6.2072501 68.925003
-3.6046081 6.2072501 68.925003
-3.4536791 6.2072501 68.925003
-3.3027501 6.2072501 68.925003
-3.1518209 6.2072501 68.925003
-3.0019801 6.2095008 68.950005
-2.850996 6.2095008 68.950005
-2.7009921 6.2117519 68.974998
-2.552726 6.2185059 69.050003
-2.4032631 6.2230101 69.100006
-2.254395 6.229764 69.175003
-2.105958 6.23877 69.275002
-1.9563791 6.2455239 69.350006
-1.807121 6.25453 69.450005
-1.658021 6.2657871 69.575005
-1.507833 6.2747931 69.675003
-1.3572069 6.2837992 69.775002
-1.205711 6.2905531 69.850006
-1.053511 6.2950559 69.900009
-7.5989089 6.2911582 68.200005
-7.446836 6.2888522 68.175003
-7.2975502 6.2888522 68.175003
-7.1430211 6.2842388 68.125
-6.9912782 6.2819328 68.100006
-6.837131 6.2773199 68.050003
-6.680747 6.270402 67.975006
-6.5270939 6.26579 67.925003
-6.3713131 6.258872 67.850006
-6.2158589 6.2519531 67.775002
-6.0607328 6.2450352 67.700005
-5.9081202 6.2404218 67.650002
-5.7557259 6.2358098 67.600006
-5.6056252 6.2335038 67.575005
-5.4576521 6.2335038 67.575005
-5.3136082 6.2381158 67.625008
-5.1712551 6.2450352 67.700005
-5.028573 6.2519531 67.775002
-4.8837619 6.256566 67.825005
-4.7387328 6.261178 67.875
-4.591794 6.263484 67.900002
-4.446382 6.268096 67.950005
-4.2991681 6.270402 67.975006
-4.1533728 6.2750139 68.025002
-4.0058861 6.2773199 68.050003
-3.861124 6.2842388 68.125
-3.7405519 6.3326678 68.650002
-3.6006849 6.3511171 68.850006
-3.4511731 6.3534231 68.875
-3.300354 6.3534231 68.875
-3.149534 6.3534231 68.875
-2.9998031 6.3557291 68.900002
-2.8499629 6.358036 68.925003
-2.7009921 6.362648 68.974998
-2.5518019 6.36726 69.025002
-2.4032631 6.3741789 69.100006
-2.254395 6.3810968 69.175003
-2.105958 6.3903208 69.275002
-1.9563791 6.3972402 69.350006
-1.807121 6.4064651 69.450005
-1.657426 6.415689 69.550003
-1.507292 6.4249129 69.650002
-1.356234 6.4318318 69.724998
-1.2048481 6.4387498 69.800003
-1.052757 6.4433632 69.850006
-7.8987851 6.5654812 69.525002
-7.5961232 6.4379959 68.175003
-7.4441061 6.4356351 68.150002
-7.2895222 6.430913 68.100006
-7.1351571 6.4261918 68.050003
-6.9810109 6.4214702 68
-6.8270841 6.416749 67.950005
-6.6733761 6.4120269 67.900002
-6.5174851 6.4049439 67.825005
-6.3619218 6.397862 67.75
-6.206687 6.390779 67.675003
-6.0517812 6.383697 67.600006
-5.8993869 6.3789749 67.550003
-5.747211 6.3742528 67.5
-5.5973291 6.3718929 67.475006
-5.4495749 6.3718929 67.475006
-5.3037858 6.3742528 67.5
-5.161706 6.3813362 67.575005
-5.021153 6.390779 67.675003
-4.8783622 6.397862 67.75
-4.7352419 6.4049439 67.825005
-4.5901041 6.4096661 67.875
-4.444746 6.4143882 67.925003
-4.2975869 6.416749 67.950005
-4.1518459 6.4214702 68
-4.0058861 6.4261918 68.050003
-3.861124 6.4332752 68.125
-3.7173951 6.442718 68.225006
-3.586303 6.475769 68.574997
-3.44491 6.4922962 68.750008
-3.295562 6.4946561 68.775002
-3.147248 6.4993782 68.824997
-2.9976261 6.501739 68.850006
-2.8478949 6.5040998 68.875
-2.699034 6.508821 68.925003
-2.550878 6.5159039 69.000008
-2.4023931 6.5229859 69.075005
-2.254395 6.5324302 69.175003
-2.105958 6.541873 69.275002
-1.9570839 6.5513158 69.375
-1.807771 6.5607591 69.474998
-1.657426 6.567842 69.550003
-1.507292 6.5772848 69.650002
-1.356234 6.5843682 69.724998
-1.2048481 6.5914502 69.800003
-1.05238 6.593812 69.825005
-0.89980203 6.5961719 69.850006
-7.74541 6.587141 68.175003
-7.5905519 6.5823102 68.125
-7.4386449 6.579895 68.100006
-7.2841702 6.5750642 68.050003
-7.1272931 6.5678158 67.975006
-6.9733119 6.5629859 67.925003
-6.8195491 6.5581551 67.875
-6.663548 6.5509081 67.800003
-6.5102782 6.5460768 67.75
-6.3548789 6.5388298 67.675003
-6.1998091 6.5315838 67.600006
-6.0450668 6.5243378 67.525009
-5.8906541 6.5170908 67.450005
-5.7408261 6.5146751 67.425003
-5.5890341 6.5098438 67.375008
-5.4414992 6.5098438 67.375008
-5.297893 6.5146751 67.425003
-5.154068 6.519506 67.475006
-5.0137339 6.5291681 67.575005
-4.8747621 6.5412459 67.700005
-4.731751 6.548492 67.775002
-4.5884128 6.5557389 67.850006
-4.44311 6.5605698 67.900002
-4.2975869 6.565402 67.950005
-4.1518459 6.5702319 68
-4.0058861 6.5750642 68.050003
-3.8597071 6.579895 68.100006
-3.716033 6.5895572 68.200005
-3.5732291 6.601634 68.325005
-3.4348879 6.623374 68.550003
-3.289572 6.6330361 68.650002
-3.1415319 6.637867 68.700005
-2.993273 6.6426978 68.750008
-2.844794 6.6475291 68.800003
-2.6970761 6.6547761 68.875
-2.5490291 6.6620221 68.950005
-2.4015241 6.6716838 69.050003
-2.2535801 6.6813459 69.150002
-2.105958 6.6934242 69.275002
-1.9577889 6.705502 69.400002
-1.808422 6.7151642 69.500008
-1.658617 6.7248259 69.600006
-1.507833 6.7320728 69.675003
-1.356721 6.7393188 69.750008
-1.2052799 6.7465658 69.825005
-1.052757 6.748981 69.850006
-0.90012401 6.7513971 69.875
-7.7397289 6.7313461 68.125
-7.584981 6.7264051 68.075005
-7.4304519 6.7214651 68.025002
-7.2761421 6.7165251 67.975006
-7.1194291 6.7091141 67.900002
-6.9656119 6.704174 67.850006
-6.8120131 6.6992331 67.800003
-6.656177 6.691823 67.725006
-6.5030708 6.686882 67.675003
-6.347836 6.679471 67.600006
-6.1929312 6.672061 67.525009
-6.038352 6.66465 67.450005
-5.8862872 6.659709 67.400002
-5.7344398 6.6547689 67.350006
-5.5848861 6.652298 67.325005
-5.4374609 6.652298 67.325005
-5.2919998 6.6547689 67.350006
-5.150249 6.662179 67.425003
-5.0100241 6.672061 67.525009
-4.8693609 6.681942 67.625008
-4.728261 6.691823 67.725006
-4.585032 6.6992331 67.800003
-4.441473 6.7066441 67.875
-4.2960062 6.7115841 67.925003
-4.1503201 6.7165251 67.975006
-4.0058861 6.7239351 68.050003
-3.8597071 6.7288761 68.100006
-3.7146709 6.7362871 68.175003
-3.5706141 6.7461681 68.275002
-3.427372 6.7585192 68.400002
-3.2835829 6.7708688 68.525002
-3.1369591 6.7782798 68.600006
-2.9900069 6.7856908 68.675003
-2.8416929 6.7906308 68.724998
-2.694139 6.7980418 68.800003
-2.546257 6.8054528 68.875
-2.399785 6.8178029 69.000008
-2.2527649 6.8301539 69.125
-2.1067181 6.847446 69.300003
-1.9584939 6.859797 69.425003
-1.809723 6.872148 69.550003
-1.659809 6.8820291 69.650002
-1.5089149 6.8894401 69.724998
-1.357693 6.8968511 69.800003
-1.206143 6.9042611 69.875
-1.053887 6.9092021 69.925003
-0.90141302 6.9141421 69.974998
-7.7340479 6.8753319 68.075005
-7.5794101 6.8702822 68.025002
-7.4249902 6.865232 67.975006
-7.2654381 6.8551331 67.875
-7.1115651 6.8500819 67.825005
-6.957912 6.8450332 67.775002
-6.8019662 6.8374581 67.700005
-6.6488061 6.832408 67.650002
-6.4958639 6.8273592 67.600006
-6.3407941 6.8197842 67.525009
-6.188344 6.814734 67.475006
-6.0338759 6.8071589 67.400002
-5.8819199 6.8021102 67.350006
-5.7301831 6.79706 67.300003
-5.580739 6.7945352 67.275009
-5.433423 6.7945352 67.275009
-5.2880712 6.79706 67.300003
-5.14643 6.8046341 67.375008
-5.0063138 6.814734 67.475006
-4.8657608 6.8248329 67.575005
-4.7247701 6.8349319 67.675003
-4.5833411 6.8450332 67.775002
-4.4398379 6.8526068 67.850006
-4.294425 6.857657 67.900002
-4.1503201 6.865232 67.975006
-4.004415 6.8702822 68.025002
-3.85829 6.8753319 68.075005
-3.713309 6.882906 68.150002
-3.5679989 6.890481 68.225006
-3.423614 6.9005799 68.325005
-3.278791 6.9106798 68.425003
-3.132386 6.9182549 68.500008
-2.9856529 6.9258289 68.574997
-2.8385921 6.933404 68.650002
-2.6912019 6.940979 68.724998
-2.5444081 6.9510789 68.824997
-2.398046 6.9637041 68.950005
-2.251951 6.9788532 69.100006
-2.108238 7.0041022 69.350006
-1.96061 7.0192518 69.500008
-1.811675 7.0318761 69.625
-1.6615959 7.041975 69.724998
-1.510538 7.0495501 69.800003
-1.359152 7.0571251 69.875
-1.207438 7.0647001 69.950005
-7.7226882 7.0139389 67.975006
-7.5682678 7.00878 67.925003
-7.4140682 7.0036211 67.875
-7.25741 6.995882 67.800003
-7.1010799 6.988143 67.725006
-6.9476461 6.9829841 67.675003
-6.7944312 6.9778252 67.625008
-6.6414342 6.9726648 67.575005
-6.488657 6.9675059 67.525009
-6.3360982 6.962347 67.475006
-6.1837592 6.9571881 67.425003
-6.0293999 6.94945 67.350006
-5.8797369 6.9468689 67.325005
-5.728055 6.94171 67.275009
-5.5786638 6.9391298 67.25
-5.4314032 6.9391298 67.25
-5.2880712 6.9442902 67.300003
-5.1445198 6.94945 67.350006
-5.0044589 6.9597678 67.450005
-4.8639612 6.9700861 67.550003
-4.7230239 6.9804039 67.650002
-4.5816498 6.9907231 67.75
-4.4382019 6.9984622 67.825005
-4.2928429 7.0036211 67.875
-4.1487932 7.0113602 67.950005
-4.002943 7.0165191 68
-3.856873 7.021678 68.050003
-3.711947 7.029417 68.125
-3.5666921 7.0371561 68.200005
-3.421109 7.0448952 68.275002
-3.275197 7.0526328 68.350006
-3.128957 7.0603719 68.425003
-2.9834759 7.0706902 68.525002
-2.836524 7.0784292 68.600006
-2.690223 7.088748 68.700005
-2.543484 7.0990658 68.800003
-2.396307 7.1093841 68.900002
-2.2511361 7.1274419 69.075005
-2.1097579 7.1609759 69.400002
-1.962726 7.1790342 69.575005
-1.812976 7.189352 69.675003
-1.662787 7.1996698 69.775002
-1.512161 7.2099891 69.875
-1.360611 7.2177281 69.950005
-7.7113261 7.1521101 67.875
-7.557126 7.146841 67.825005
-7.4031439 7.141573 67.775002
-7.249382 7.1363039 67.725006
-7.0932159 7.1284008 67.650002
-6.9399471 7.1231332 67.600006
-6.7868962 7.1178651 67.550003
-6.6340628 7.112596 67.5
-6.4814501 7.107327 67.450005
-6.3314028 7.104692 67.425003
-6.179173 7.0994239 67.375008
-6.0271621 7.0941548 67.325005
-5.875371 7.0888872 67.275009
-5.725925 7.0862522 67.25
-5.576591 7.0836191 67.225006
-5.4314032 7.0862522 67.25
-5.2861071 7.0888872 67.275009
-5.1445198 7.0967898 67.350006
-5.002604 7.104692 67.425003
-4.8621612 7.1152301 67.525009
-4.7212791 7.1257672 67.625008
-4.578269 7.1336699 67.700005
-4.4349298 7.141573 67.775002
-4.2912631 7.1494761 67.850006
-4.145741 7.1547441 67.900002
-4.001471 7.1626468 67.975006
-3.856873 7.1705499 68.050003
-3.7105851 7.1758189 68.100006
-3.5653839 7.183722 68.175003
-3.4186029 7.1889901 68.225006
-3.2728009 7.1968932 68.300003
-3.1266699 7.2047958 68.375
-2.9812989 7.215333 68.474998
-2.8344569 7.2232361 68.550003
-2.6882651 7.2337732 68.650002
-2.5425601 7.246944 68.775002
-2.397176 7.2627511 68.925003
-2.2560239 7.2943611 69.224998
-2.112798 7.323339 69.500008
-1.964842 7.3391452 69.650002
-1.814927 7.3496828 69.750008
-1.66517 7.362854 69.875
-1.514325 7.3733902 69.974998
-8.001812 7.4323592 69.100006
-7.702806 7.292531 67.800003
-7.548769 7.2871542 67.75
-7.3949518 7.281776 67.700005
-7.238677 7.2737088 67.625008
-7.0853519 7.2683311 67.575005
-6.9322472 7.2629528 67.525009
-6.7793598 7.257575 67.475006
-6.6266918 7.2521958 67.425003
-6.476645 7.2495079 67.400002
-6.3267078 7.246819 67.375008
-6.1745882 7.2414408 67.325005
-6.0249238 7.2387509 67.300003
-5.8731871 7.2333741 67.25
-5.7237968 7.2306852 67.225006
-5.576591 7.2306852 67.225006
-5.4293852 7.2306852 67.225006
-5.2861071 7.236063 67.275009
-5.1445198 7.2441301 67.350006
-5.002604 7.2521958 67.425003
-4.8621612 7.2629528 67.525009
-4.7195339 7.2710199 67.600006
-4.5765781 7.2790861 67.675003
-4.4332938 7.2871542 67.75
-4.2880998 7.292531 67.800003
-4.1442142 7.3005991 67.875
-4 7.3086662 67.950005
-3.8554561 7.3167319 68.025002
-3.7092221 7.3221102 68.075005
-3.5640769 7.3301768 68.150002
-3.417351 7.335556 68.200005
-3.2716031 7.3436222 68.275002
-3.1255269 7.3516898 68.350006
-2.9791231 7.359756 68.425003
-2.8334229 7.370512 68.525002
-2.6882651 7.3839569 68.650002
-2.543484 7.4000912 68.800003
-2.4041319 7.4350481 69.125
-2.260098 7.459249 69.350006
-2.1135581 7.4780722 69.525002
-1.966252 7.4968939 69.700005
-1.817529 7.5130281 69.850006
-7.9989171 7.5807838 69.075005
-7.694284 7.4326248 67.725006
-7.5431991 7.429882 67.700005
-7.3894901 7.4243941 67.650002
-7.233325 7.416162 67.575005
-7.0801101 7.410676 67.525009
-6.9245472 7.4024448 67.450005
-6.7743359 7.3997011 67.425003
-6.621778 7.3942142 67.375008
-6.4718409 7.39147 67.350006
-6.3220129 7.3887262 67.325005
-6.1722951 7.385983 67.300003
-6.0204482 7.3804951 67.25
-5.8710041 7.3777509 67.225006
-5.7216692 7.3750081 67.200005
-5.5745168 7.3750081 67.200005
-5.4293852 7.3777509 67.225006
-5.284142 7.3804951 67.25
-5.1426101 7.3887262 67.325005
-5.0007501 7.3969569 67.400002
-4.8603611 7.4079318 67.5
-4.7177882 7.416162 67.575005
-4.5748868 7.4243941 67.650002
-4.4300218 7.429882 67.700005
-4.2865191 7.4381132 67.775002
-4.141161 7.4435992 67.825005
-3.997056 7.4518309 67.900002
-3.852622 7.460062 67.975006
-3.70786 7.4682932 68.050003
-3.5627699 7.4765239 68.125
-3.417351 7.484755 68.200005
-3.2704051 7.490242 68.25
-3.1255269 7.5012169 68.350006
-2.9791231 7.509449 68.425003
-2.8334229 7.5204229 68.525002
-2.689244 7.5368848 68.675003
-2.5518019 7.5752959 69.025002
-2.409349 7.6027341 69.275002
-2.2617271 7.6164508 69.400002
-2.1135581 7.6301699 69.525002
-1.969779 7.663094 69.825005
-7.9873371 7.7207041 68.974998
-7.6914449 7.5779872 67.700005
-7.5376272 7.5723901 67.650002
-7.3840289 7.5667939 67.600006
-7.230649 7.5611968 67.550003
-7.0748668 7.5528021 67.475006
-6.9219799 7.547205 67.425003
-6.7693129 7.5416079 67.375008
-6.6193209 7.5388098 67.350006
-6.4694381 7.5360112 67.325005
-6.317318 7.5304151 67.275009
-6.1677089 7.527616 67.25
-6.0182099 7.5248179 67.225006
-5.8666358 7.5192208 67.175003
-5.717411 7.5164232 67.150002
-5.5703688 7.5164232 67.150002
-5.4253459 7.5192208 67.175003
-5.2821779 7.5248179 67.225006
-5.1406999 7.5332141 67.300003
-4.9988952 7.5416079 67.375008
-4.856761 7.550004 67.450005
-4.716043 7.5611968 67.550003
-4.571507 7.5667939 67.600006
-4.4283862 7.5751891 67.675003
-4.2833571 7.5807848 67.725006
-4.1396351 7.5891809 67.800003
-3.995584 7.5975761 67.875
-3.8512061 7.6059709 67.950005
-3.7064979 7.6143661 68.025002
-3.5614619 7.6227608 68.100006
-3.4160981 7.631156 68.175003
-3.2704051 7.6395512 68.25
-3.1243839 7.6479459 68.325005
-2.9791231 7.6591401 68.425003
-2.8323901 7.6675358 68.500008
-2.6970761 7.7095108 68.875
-2.5573471 7.7430911 69.175003
-2.410218 7.757082 69.300003
-2.2617271 7.7682762 69.400002
-2.1135581 7.782268 69.525002
-7.6857638 7.720387 67.650002
-7.534842 7.7175341 67.625008
-7.3812981 7.7118282 67.575005
-7.227973 7.7061219 67.525009
-7.0748668 7.7004161 67.475006
-6.919414 7.6918559 67.400002
-6.7693129 7.689003 67.375008
-6.6168642 7.6832972 67.325005
-6.4670358 7.6804438 67.300003
-6.31497 7.6747379 67.25
-6.1654172 7.671885 67.225006
-6.0137329 7.6661792 67.175003
-5.8622699 7.6604729 67.125008
-5.715282 7.6604729 67.125008
-5.5662212 7.657619 67.099998
-5.421308 7.6604729 67.125008
-5.2782488 7.6661792 67.175003
-5.1368809 7.6747379 67.25
-4.9951849 7.6832972 67.325005
-4.8531599 7.6918559 67.400002
-4.7125521 7.703269 67.5
-4.5681248 7.7089748 67.550003
-4.4251151 7.7175341 67.625008
-4.281775 7.7260928 67.700005
-4.1365819 7.7317991 67.75
-3.992641 7.7403579 67.825005
-3.848371 7.7489181 67.900002
-3.703773 7.7574768 67.975006
-3.558847 7.766036 68.050003
-3.4135931 7.7745948 68.125
-3.269207 7.7860069 68.225006
-3.1243839 7.7974191 68.325005
-2.978034 7.8059778 68.400002
-2.836524 7.828804 68.600006
-2.7039289 7.8801589 69.050003
-2.5582719 7.8972769 69.200005
-2.410218 7.908689 69.300003
-2.2617271 7.9201012 69.400002
-2.112798 7.9315138 69.500008
-7.8192558 8.0050478 68.824997
-7.5320559 7.8625689 67.600006
-7.3812981 7.8596601 67.575005
-7.227973 7.8538451 67.525009
-7.0748668 7.8480291 67.475006
-6.9219799 7.8422141 67.425003
-6.7693129 7.8363991 67.375008
-6.6168642 7.8305831 67.325005
-6.4646339 7.8247681 67.275009
-6.312623 7.8189521 67.225006
-6.16083 7.8131361 67.175003
-6.0092578 7.8073211 67.125008
-5.860086 7.8044119 67.099998
-5.7088971 7.7985969 67.050003
-5.5620742 7.7985969 67.050003
-5.4172702 7.8015051 67.075005
-5.272356 7.8044119 67.099998
-5.1311522 7.8131361 67.175003
-4.9896202 7.8218589 67.25
-4.8477602 7.8305831 67.325005
-4.7073159 7.8422141 67.425003
-4.564744 7.8509369 67.5
-4.4218431 7.8596601 67.575005
-4.2786131 7.8683829 67.650002
-4.135056 7.8771071 67.725006
-3.9896979 7.8829222 67.775002
-3.8455379 7.8916459 67.850006
-3.70105 7.9003692 67.925003
-3.556232 7.909091 68
-3.411087 7.9178152 68.075005
-3.2668109 7.9294472 68.175003
-3.1232409 7.943985 68.300003
-2.978034 7.955616 68.400002
-2.8396261 7.9876008 68.675003
-2.7049079 8.0341253 69.075005
-2.5582719 8.0486641 69.200005
-2.410218 8.0602951 69.300003
-2.2609129 8.0690184 69.375
-2.1112781 8.0777416 69.450005
-1.963431 8.0951881 69.600006
-7.8590212 8.1970892 69.175003
-7.5320559 8.0104551 67.600006
-7.3812981 8.0074921 67.575005
-7.230649 8.00453 67.550003
-7.0774879 7.9986048 67.5
-6.9245472 7.992681 67.450005
-6.7718239 7.9867549 67.400002
-6.6193209 7.9808311 67.350006
-6.4646339 7.9719429 67.275009
-6.312623 7.9660192 67.225006
-6.16083 7.960093 67.175003
-6.007019 7.9512062 67.099998
-5.85572 7.945281 67.050003
-5.704639 7.9393559 67
-5.5579262 7.9393559 67
-5.411212 7.9393559 67
-5.2664628 7.9423189 67.025009
-5.1235142 7.9482441 67.075005
-4.9822011 7.95713 67.150002
-4.8423591 7.9689808 67.25
-4.700335 7.9778681 67.325005
-4.5596709 7.989717 67.425003
-4.418571 8.0015678 67.525009
-4.2754512 8.0104551 67.600006
-4.1320028 8.0193424 67.675003
-3.9867539 8.0252666 67.725006
-3.8427041 8.0341549 67.800003
-3.6983249 8.0430422 67.875
-3.55231 8.0489674 67.925003
-3.408582 8.0608168 68.025002
-3.264415 8.0726662 68.125
-3.1198111 8.0845165 68.225006
-2.9747691 8.0963659 68.325005
-2.8396261 8.1378403 68.675003
-2.7039289 8.1822767 69.050003
-2.5573471 8.1970892 69.175003
-2.409349 8.2089386 69.275002
-2.2609129 8.220789 69.375
-2.1112781 8.2296762 69.450005
-1.96061 8.2356014 69.500008
-7.6629758 8.300148 68.775002
-7.3840289 8.1583424 67.600006
-7.233325 8.1553249 67.575005
-7.0801101 8.149292 67.525009
-6.9296799 8.1462736 67.5
-6.7743359 8.1372223 67.425003
-6.621778 8.1311884 67.375008
-6.4670358 8.1221361 67.300003
-6.312623 8.1130857 67.225006
-6.1585379 8.1040335 67.150002
-6.0047808 8.0949821 67.075005
-5.8535371 8.0889482 67.025009
-5.7025108 8.0829134 66.975006
-5.5537791 8.0798969 66.950005
-5.4071741 8.0798969 66.950005
-5.2625341 8.0829134 66.975006
-5.117785 8.0859308 67
-4.9766359 8.0949821 67.075005
-4.8351579 8.1040335 67.150002
-4.6933532 8.1130857 67.225006
-4.5545998 8.128171 67.350006
-4.4136629 8.1402397 67.450005
-4.2707081 8.149292 67.525009
-4.1274238 8.1583424 67.600006
-3.9838109 8.1673937 67.675003
-3.8384531 8.1734276 67.725006
-3.6942379 8.1824799 67.800003
-3.549695 8.1915312 67.875
-3.404824 8.2005835 67.950005
-3.259624 8.2096338 68.025002
-3.115238 8.2217026 68.125
-2.9704151 8.2337704 68.225006
-2.829288 8.2579088 68.425003
-2.7019711 8.327302 69.000008
-2.5573471 8.3484221 69.175003
-2.409349 8.3604908 69.275002
-2.2609129 8.3725595 69.375
-2.1112781 8.3816099 69.450005
-1.96061 8.3876457 69.500008
-1.810374 8.3966961 69.575005
-7.7270432 8.5212574 69.350006
-7.3894901 8.3123732 67.650002
-7.238677 8.3093014 67.625008
-7.0879741 8.3062296 67.600006
-6.934813 8.3000851 67.550003
-6.7818718 8.2939405 67.5
-6.6266918 8.2847261 67.425003
-6.4718409 8.2755108 67.350006
-6.31497 8.2632236 67.25
-6.16083 8.2540083 67.175003
-6.0047808 8.2417202 67.075005
-5.8513532 8.2325048 67
-5.7003832 8.2263622 66.950005
-5.5517039 8.2232904 66.925003
-5.4031358 8.2202177 66.900002
-5.258605 8.2232904 66.925003
-5.113966 8.2263622 66.950005
-4.9710708 8.2325048 67
-4.8297591 8.2417202 67.075005
-4.688117 8.2509375 67.150002
-4.5478368 8.2632236 67.25
-4.4071202 8.2755108 67.350006
-4.265964 8.2877989 67.450005
-4.1243711 8.3000851 67.550003
-3.9793961 8.3062296 67.600006
-3.835619 8.3154449 67.675003
-3.6901519 8.3215895 67.725006
-3.545773 8.3308039 67.800003
-3.3998129 8.3369474 67.850006
-3.2560301 8.3492355 67.950005
-3.110666 8.3584509 68.025002
-2.9660611 8.370738 68.125
-2.8210189 8.3830252 68.225006
-2.681412 8.413743 68.474998
-2.5573471 8.4997549 69.175003
-2.409349 8.512042 69.275002
-2.260098 8.5212574 69.350006
-2.110518 8.5304728 69.425003
-1.96061 8.5396881 69.500008
-1.809723 8.5458317 69.550003
-7.509645 8.5979366 68.750008
-7.246706 8.4666224 67.700005
-7.0958381 8.4634953 67.675003
-6.942513 8.457243 67.625008
-6.7894068 8.4509897 67.575005
-6.6340628 8.4416103 67.5
-6.476645 8.4291039 67.400002
-6.3196659 8.4165983 67.300003
-6.1631241 8.4040928 67.200005
-6.007019 8.3915854 67.099998
-5.8535371 8.382206 67.025009
-5.7025108 8.3759527 66.975006
-5.5517039 8.3696985 66.925003
-5.4031358 8.3665733 66.900002
-5.2566409 8.3665733 66.900002
-5.1120558 8.3696985 66.925003
-4.9673619 8.3728266 66.950005
-4.826159 8.382206 67.025009
-4.6846261 8.3915854 67.099998
-4.5427651 8.4009657 67.175003
-4.4022121 8.4134722 67.275009
-4.26122 8.4259777 67.375008
-4.119792 8.4384832 67.475006
-3.9764531 8.4478636 67.550003
-3.831368 8.4541168 67.600006
-3.687427 8.4634953 67.675003
-3.541851 8.4697475 67.725006
-3.3973081 8.4791288 67.800003
-3.2512381 8.4853821 67.850006
-3.1072359 8.4978876 67.950005
-2.9617071 8.507267 68.025002
-2.816884 8.5197725 68.125
-2.670644 8.5291529 68.200005
-2.5471809 8.6166954 68.900002
-2.409349 8.6635933 69.275002
-2.260098 8.6729727 69.350006
-2.110518 8.6823521 69.425003
-1.96061 8.6917324 69.500008
-1.809072 8.6948586 69.525002
-1.658617 8.7042379 69.600006
-7.6052222 8.8596821 69.625
-7.2814941 8.6560841 68.025002
-7.1063228 8.6242723 67.775002
-6.9553461 8.6210909 67.75
-6.7994542 8.6115475 67.675003
-6.6438909 8.6020041 67.600006
-6.4862542 8.5892792 67.5
-6.3267078 8.5733728 67.375008
-6.1677089 8.5574675 67.25
-6.0114961 8.5447416 67.150002
-5.857903 8.5351982 67.075005
-5.704639 8.5256548 67
-5.5537791 8.5192928 66.950005
-5.4051552 8.5161104 66.925003
-5.258605 8.5161104 66.925003
-5.1120558 8.5161104 66.925003
-4.9673619 8.5192928 66.950005
-4.824358 8.5256548 67
-4.6811352 8.5320177 67.050003
-4.5393839 8.5415611 67.125008
-4.3989401 8.554286 67.225006
-4.2580581 8.5670109 67.325005
-4.115212 8.5765543 67.400002
-3.972038 8.5860977 67.475006
-3.8285351 8.5956421 67.550003
-3.683341 8.6020041 67.600006
-3.5392361 8.6115475 67.675003
-3.393549 8.6179104 67.725006
-3.248842 8.6274538 67.800003
-3.103806 8.6369972 67.875
-2.9595301 8.6497221 67.975006
-2.8137829 8.6592665 68.050003
-2.667707 8.6688089 68.125
-2.5249989 8.6910772 68.300003
-2.410218 8.818326 69.300003
-2.260098 8.8246889 69.350006
-2.110518 8.8342323 69.425003
-1.96061 8.8437767 69.500008
-1.809723 8.8501387 69.550003
-1.658617 8.8565006 69.600006
-7.3430429 8.8793268 68.600006
-7.1246719 8.7951927 67.950005
-6.9681792 8.7854853 67.875
-6.8120131 8.7757778 67.800003
-6.6586342 8.7693052 67.75
-6.5030708 8.7595978 67.675003
-6.3407941 8.7401829 67.525009
-6.1768808 8.7175322 67.350006
-6.0182099 8.7013512 67.225006
-5.8622699 8.6884079 67.125008
-5.7110252 8.6819363 67.075005
-5.5599999 8.6754646 67.025009
-5.409194 8.668993 66.975006
-5.260571 8.6657572 66.950005
-5.113966 8.6657572 66.950005
-4.9692168 8.668993 66.975006
-4.824358 8.6722288 67
-4.6811352 8.6787004 67.050003
-4.537693 8.6851711 67.099998
-4.395668 8.6948795 67.175003
-4.2548962 8.7078238 67.275009
-4.1121588 8.7175322 67.350006
-3.969094 8.7272387 67.425003
-3.825701 8.7369461 67.5
-3.6819789 8.7466536 67.575005
-3.5379281 8.756362 67.650002
-3.392297 8.7628345 67.700005
-3.2476439 8.772542 67.775002
-3.102663 8.7822495 67.850006
-2.9573531 8.7919569 67.925003
-2.8127489 8.8049011 68.025002
-2.6657491 8.8113728 68.075005
-2.5231509 8.8340235 68.25
-2.410218 8.9699316 69.300003
-2.260098 8.9764032 69.350006
-2.110518 8.9861116 69.425003
-1.96061 8.9958191 69.500008
-1.810374 9.0055265 69.575005
-1.658617 9.0087633 69.600006
-7.4714918 9.1873503 69.800003
-7.163991 8.9932051 68.325005
-6.9861441 8.9570084 68.050003
-6.829596 8.9471359 67.975006
-6.6758342 8.9405556 67.925003
-6.5174851 8.927393 67.825005
-6.3595738 8.9142303 67.725006
-6.197516 8.8944864 67.575005
-6.0293999 8.864872 67.350006
-5.8731871 8.8517094 67.25
-5.717411 8.8385468 67.150002
-5.5662212 8.8319654 67.099998
-5.4152508 8.8253851 67.050003
-5.2664628 8.822094 67.025009
-5.117785 8.8188028 67
-4.9710708 8.8188028 67
-4.826159 8.822094 67.025009
-4.6811352 8.8253851 67.050003
-4.537693 8.8319654 67.099998
-4.395668 8.8418369 67.175003
-4.253314 8.8517094 67.25
-4.1106329 8.8615808 67.325005
-3.969094 8.8747435 67.425003
-3.825701 8.8846149 67.5
-3.6819789 8.8944864 67.575005
-3.5379281 8.9043589 67.650002
-3.392297 8.9109402 67.700005
-3.2476439 8.9208117 67.775002
-3.1015201 8.927393 67.825005
-2.956265 8.9372654 67.900002
-2.8106811 8.9471359 67.975006
-2.6657491 8.9602985 68.075005
-2.546257 9.0655975 68.875
-2.411088 9.1248293 69.325005
-2.2609129 9.1314096 69.375
-2.1112781 9.1412821 69.450005
-1.961315 9.1511536 69.525002
-1.810374 9.1577349 69.575005
-1.6592129 9.1643162 69.625
-1.507833 9.1708965 69.675003
-7.3186469 9.3400497 69.800003
-7.0118098 9.1393328 68.300003
-6.842155 9.1125708 68.100006
-6.6856608 9.1025352 68.025002
-6.531898 9.0958443 67.975006
-6.3760071 9.0858088 67.900002
-6.218152 9.0724277 67.800003
-6.054019 9.0490103 67.625008
-5.8862872 9.0189028 67.400002
-5.7301831 9.0055218 67.300003
-5.576591 8.9954863 67.225006
-5.423327 8.9854498 67.150002
-5.2743211 8.9821053 67.125008
-5.125423 8.9787588 67.099998
-4.9766359 8.9754143 67.075005
-4.8297591 8.9754143 67.075005
-4.6828799 8.9754143 67.075005
-4.5393839 8.9821053 67.125008
-4.395668 8.9887943 67.175003
-4.2517328 8.9954863 67.225006
-4.1106329 9.0088663 67.325005
-3.969094 9.0222473 67.425003
-3.8271179 9.0356302 67.525009
-3.683341 9.0456657 67.600006
-3.5392361 9.0557013 67.675003
-3.3948021 9.0657368 67.75
-3.248842 9.0724277 67.800003
-3.102663 9.0791178 67.850006
-2.9573531 9.0891542 67.925003
-2.8106811 9.0958443 67.975006
-2.667707 9.1159163 68.125
-2.559196 9.2631083 69.224998
-2.411958 9.2798347 69.350006
-2.262542 9.2898712 69.425003
-2.112798 9.2999067 69.500008
-1.962021 9.3065977 69.550003
-1.811675 9.3166332 69.625
-1.659809 9.3199778 69.650002
-1.508374 9.3266697 69.700005
-7.158103 9.4825497 69.724998
-6.8622489 9.2887516 68.300003
-6.697947 9.2683506 68.150002
-6.5415082 9.2581511 68.075005
-6.385397 9.2479525 68
-6.2273231 9.2343512 67.900002
-6.0652089 9.2139511 67.75
-5.9015698 9.1901512 67.575005
-5.7386971 9.1663513 67.400002
-5.5828118 9.1527519 67.300003
-5.4293852 9.1425514 67.225006
-5.2782488 9.1357517 67.175003
-5.1292429 9.1323519 67.150002
-4.9803462 9.128952 67.125008
-4.8333588 9.128952 67.125008
-4.6863708 9.128952 67.125008
-4.5410738 9.1323519 67.150002
-4.397305 9.1391516 67.200005
-4.253314 9.1459513 67.25
-4.1106329 9.1561518 67.325005
-3.970566 9.173152 67.450005
-3.829951 9.1901512 67.575005
-3.6887901 9.2071514 67.700005
-3.5431581 9.2139511 67.75
-3.3973081 9.2207518 67.800003
-3.2512381 9.2275515 67.850006
-3.104949 9.2343512 67.900002
-2.958442 9.2411518 67.950005
-2.8117149 9.2479525 68
-2.685328 9.3261499 68.574997
-2.5619681 9.4247503 69.300003
-2.4136961 9.4383497 69.400002
-2.2641709 9.4485502 69.474998
-2.1143179 9.4587498 69.550003
-1.963431 9.4655495 69.600006
-1.812976 9.4757509 69.675003
-1.661 9.4791498 69.700005
-1.5089149 9.4825497 69.724998
-6.9828162 9.6039944 69.500008
-6.7667451 9.5141745 68.850006
-6.5583239 9.4312601 68.25
-6.3994832 9.4174414 68.150002
-6.243372 9.4070778 68.075005
-6.0853519 9.393259 67.975006
-5.9255872 9.3759861 67.850006
-5.7599831 9.3483486 67.650002
-5.5952559 9.3207111 67.450005
-5.4414992 9.3103466 67.375008
-5.2880712 9.299983 67.300003
-5.1368809 9.2930737 67.25
-4.984056 9.2827091 67.175003
-4.8369589 9.2827091 67.175003
-4.688117 9.2792549 67.150002
-4.5427651 9.2827091 67.175003
-4.3989401 9.2896175 67.225006
-4.2548962 9.2965279 67.275009
-4.1121588 9.3068924 67.350006
-3.9735091 9.3276215 67.5
-3.8384531 9.3587122 67.725006
-3.695601 9.3725309 67.825005
-3.549695 9.3794403 67.875
-3.402318 9.3828955 67.900002
-3.2560301 9.3898039 67.950005
-3.1083789 9.393259 67.975006
-2.9617071 9.4001684 68.025002
-2.8137829 9.4036226 68.050003
-2.70295 9.5383558 69.025002
-2.565665 9.5901747 69.400002
-2.4163051 9.6005392 69.474998
-2.265801 9.6074495 69.525002
-2.1158381 9.6178131 69.600006
-1.964842 9.6247215 69.650002
-1.8136261 9.6316319 69.700005
-1.6615959 9.6350861 69.724998
-1.509456 9.6385412 69.750008
-6.8134279 9.731473 69.325005
-6.6376009 9.6963797 69.075005
-6.4581718 9.6542673 68.775002
-6.2938151 9.6332102 68.625
-6.1390662 9.6261911 68.574997
-5.9823542 9.6156635 68.500008
-5.8259702 9.6051359 68.425003
-5.6699138 9.5946083 68.350006
-5.5182252 9.5910978 68.325005
-5.3666458 9.5875893 68.300003
-5.2151761 9.5840797 68.275002
-5.0638151 9.5805693 68.25
-4.8909631 9.5349483 67.925003
-4.7020798 9.4542332 67.350006
-4.5478368 9.4401951 67.25
-4.4022121 9.4437046 67.275009
-4.2564769 9.4472141 67.300003
-4.1167388 9.4647608 67.425003
-3.997056 9.5314388 67.900002
-3.852622 9.5419664 67.975006
-3.7051361 9.545476 68
-3.556232 9.545476 68
-3.4073291 9.545476 68
-3.259624 9.5489864 68.025002
-3.111809 9.552495 68.050003
-2.964972 9.559514 68.100006
-2.8210189 9.5770607 68.225006
-2.715677 9.7349815 69.350006
-2.5675139 9.7490196 69.450005
-2.4171741 9.7560387 69.500008
-2.267431 9.7665672 69.575005
-2.1165979 9.7735853 69.625
-1.965547 9.7806044 69.675003
-1.8142771 9.7876225 69.724998
-1.662192 9.791132 69.750008
-1.509997 9.7946405 69.775002
-6.1457801 9.7869034 68.650002
-5.9845371 9.769084 68.525002
-5.8259702 9.7548265 68.425003
-5.66784 9.7405701 68.325005
-5.5141869 9.7334433 68.275002
-5.3627172 9.7298775 68.25
-5.2151761 9.7334433 68.275002
-5.0712352 9.7441349 68.350006
-4.9269662 9.7548265 68.425003
-4.780622 9.7619553 68.474998
-4.6340599 9.769084 68.525002
-4.4840069 9.769084 68.525002
-4.330791 9.7619553 68.474998
-4.1747432 9.7476988 68.375
-4.0191312 9.7334433 68.275002
-3.8639579 9.7191868 68.175003
-3.711947 9.7120581 68.125
-3.5614619 9.7084951 68.100006
-3.411087 9.7049294 68.075005
-3.2632179 9.7084951 68.100006
-3.1163809 9.7156219 68.150002
-2.9682381 9.7191868 68.175003
-2.8396261 9.7904673 68.675003
-4.420918 3.5425191 69.900009
-4.2663269 3.5412509 69.875
-4.113318 3.5412509 69.875
-4.7304268 3.6980801 69.950005
-4.5658021 3.6888289 69.775002
-4.4114299 3.6875069 69.750008
-4.2571688 3.6861849 69.724998
-4.1044879 3.6861849 69.724998
-3.9532239 3.6875069 69.750008
-3.8072989 3.6941161 69.875
-5.033174 3.848356 69.900009
-4.85742 3.8304629 69.575005
-4.7050672 3.8304629 69.575005
-4.5543509 3.83184 69.600006
-4.4035239 3.833216 69.625
-4.2525892 3.8345921 69.650002
-4.1000729 3.8345921 69.650002
-3.9489729 3.835969 69.675003
-3.7991259 3.838721 69.724998
-3.652983 3.845603 69.850006
-5.1806731 3.9969821 69.825005
-4.9935708 3.9697909 69.350006
-4.8434558 3.9712219 69.375
-4.693233 3.9726529 69.400002
-4.5461712 3.9769461 69.474998
-4.3956189 3.9783781 69.500008
-4.244957 3.979809 69.525002
-4.0927148 3.979809 69.525002
-3.9418881 3.98124 69.550003
-3.792315 3.984102 69.600006
-3.6425231 3.986964 69.650002
-3.4975231 3.9955499 69.800003
-5.3354821 4.1512222 69.850006
-5.138011 4.1155639 69.250008
-4.98277 4.1125922 69.200005
-4.832984 4.114078 69.224998
-4.6847801 4.1170502 69.275002
-4.536356 4.1200209 69.325005
-4.387713 4.122993 69.375
-4.2373252 4.1244779 69.400002
-4.0868282 4.1259642 69.425003
-3.9362209 4.12745 69.450005
-3.7855041 4.1289349 69.474998
-3.6359861 4.131907 69.525002
-3.486249 4.1348791 69.575005
-3.3434801 4.1467652 69.775002
-6.8773122 4.3117328 69.974998
-6.7216821 4.3101931 69.950005
-6.5685081 4.3101931 69.950005
-6.4153352 4.3101931 69.950005
-6.259923 4.3086529 69.925003
-6.1046209 4.3071132 69.900009
-5.9494281 4.305572 69.875
-5.7964191 4.305572 69.875
-5.6413908 4.3040309 69.850006
-5.482543 4.2994099 69.775002
-5.2896509 4.2670598 69.250008
-5.128736 4.2593579 69.125
-4.9755688 4.2578182 69.100006
-4.8242569 4.2578182 69.100006
-4.6746349 4.2593579 69.125
-4.5265412 4.2624388 69.175003
-4.3782258 4.2655201 69.224998
-4.2296929 4.2686009 69.275002
-4.0794702 4.2701411 69.300003
-3.929136 4.2716818 69.325005
-3.7786939 4.273222 69.350006
-3.6281409 4.2747631 69.375
-3.4774799 4.2763028 69.400002
-3.326709 4.277843 69.425003
-3.182688 4.2886271 69.600006
-7.020493 4.458436 69.875
-6.8674841 4.458436 69.875
-6.7120719 4.456841 69.850006
-6.5591178 4.456841 69.850006
-6.4038711 4.455245 69.825005
-6.2487321 4.45365 69.800003
-6.0915208 4.45046 69.750008
-5.936656 4.4488649 69.724998
-5.779829 4.4456749 69.675003
-5.6191812 4.4392939 69.575005
-5.44522 4.4217482 69.300003
-5.278193 4.408987 69.100006
-5.1213169 4.404201 69.025002
-4.966568 4.401011 68.974998
-4.8155298 4.401011 68.974998
-4.666183 4.402606 69.000008
-4.5183611 4.4057961 69.050003
-4.3703198 4.408987 69.100006
-4.2220612 4.4121771 69.150002
-4.0721121 4.4137721 69.175003
-3.9220519 4.4153671 69.200005
-3.771883 4.4169621 69.224998
-3.621604 4.4185581 69.250008
-3.469964 4.4185581 69.250008
-3.3183229 4.4185581 69.250008
-3.166683 4.4185581 69.250008
-3.0150421 4.4185581 69.250008
-2.8758061 4.4376988 69.550003
-7.012958 4.6063499 69.800003
-6.8601122 4.6063499 69.800003
-6.704865 4.604701 69.775002
-6.5520749 4.604701 69.775002
-6.3946991 4.6014009 69.724998
-6.2375422 4.5981011 69.675003
-6.0806041 4.5948009 69.625
-5.9238849 4.5915022 69.575005
-5.7653108 4.5865531 69.500008
-5.6010079 4.576653 69.350006
-5.433434 4.5634551 69.150002
-5.270555 4.553555 69.000008
-5.1138968 4.5486059 68.925003
-4.9593682 4.5453062 68.875
-4.8068032 4.5436559 68.850006
-4.6577291 4.5453062 68.875
-4.5085449 4.5469561 68.900002
-4.3624139 4.5519061 68.974998
-4.2144289 4.5552049 69.025002
-4.0647531 4.5568552 69.050003
-3.916384 4.5601549 69.100006
-3.766434 4.5618048 69.125
-3.615067 4.5618048 69.125
-3.4649529 4.5634551 69.150002
-3.3135309 4.5634551 69.150002
-3.1621089 4.5634551 69.150002
-3.0106881 4.5634551 69.150002
-2.8603001 4.565104 69.175003
-2.7107821 4.5684042 69.224998
-7.158103 4.7539368 69.724998
-7.0054221 4.7539368 69.724998
-6.8527422 4.7539368 69.724998
-6.7000599 4.7539368 69.724998
-6.542685 4.7505279 69.675003
-6.3878212 4.7488241 69.650002
-6.2308278 4.7454138 69.600006
-6.0718708 4.7403011 69.525002
-5.9111142 4.7334828 69.425003
-5.7507949 4.726665 69.325005
-5.5888939 4.718142 69.200005
-5.4236131 4.7062101 69.025002
-5.2610059 4.6959829 68.875
-5.1046228 4.6908689 68.800003
-4.950367 4.6874599 68.750008
-4.7980762 4.6857562 68.724998
-4.6492758 4.6874599 68.750008
-4.5020018 4.6908689 68.800003
-4.3545079 4.6942792 68.850006
-4.208324 4.6993918 68.925003
-4.058866 4.701097 68.950005
-3.9107161 4.7045059 69.000008
-3.7609849 4.7062101 69.025002
-3.611145 4.7079139 69.050003
-3.4599421 4.7079139 69.050003
-3.309937 4.70962 69.075005
-3.1598229 4.7113242 69.100006
-3.009599 4.713028 69.125
-2.859266 4.7147331 69.150002
-2.7088239 4.7164378 69.175003
-2.5601201 4.7215509 69.250008
-2.4136961 4.7317781 69.400002
-7.150403 4.901195 69.650002
-6.9978862 4.901195 69.650002
-6.8453698 4.901195 69.650002
-6.692853 4.901195 69.650002
-6.5379901 4.899436 69.625
-6.3809419 4.8959179 69.575005
-6.2218761 4.8906398 69.500008
-6.0609541 4.8836031 69.400002
-5.9004712 4.8765659 69.300003
-5.7383509 4.8677702 69.175003
-5.57476 4.857214 69.025002
-5.409862 4.8449001 68.850006
-5.2476401 4.8343439 68.700005
-5.093493 4.8308258 68.650002
-4.9413671 4.8290672 68.625
-4.79284 4.8308258 68.650002
-4.6442041 4.8325849 68.675003
-4.4970942 4.8361039 68.724998
-4.3497648 4.839622 68.775002
-4.2022181 4.8431411 68.824997
-4.054451 4.8466592 68.875
-3.906466 4.8501778 68.925003
-3.7568991 4.8519368 68.950005
-3.60853 4.8554549 69.000008
-3.458689 4.857214 69.025002
-3.3087389 4.858974 69.050003
-3.15868 4.860734 69.075005
-3.0085111 4.862493 69.100006
-2.858232 4.8642521 69.125
-2.7088239 4.8677702 69.175003
-2.559196 4.8712878 69.224998
-2.409349 4.8748069 69.275002
-2.2633569 4.8871222 69.450005
-7.2924352 5.0463109 69.550003
-7.142704 5.0481248 69.575005
-6.9903522 5.0481248 69.575005
-6.8379989 5.0481248 69.575005
-6.685647 5.0481248 69.575005
-6.5309472 5.0463109 69.550003
-6.3717709 5.0408702 69.474998
-6.2106848 5.0336142 69.375
-6.043488 5.020916 69.200005
-5.8791852 5.0100331 69.050003
-5.715539 4.9991488 68.900002
-5.5525498 4.988266 68.750008
-5.3921828 4.979197 68.625
-5.2361822 4.9737549 68.550003
-5.0860739 4.9737549 68.550003
-4.935966 4.9737549 68.550003
-4.7876039 4.9755678 68.574997
-4.639132 4.9773831 68.600006
-4.492187 4.98101 68.650002
-4.3466029 4.9864521 68.724998
-4.1991649 4.9900799 68.775002
-4.051507 4.9937081 68.824997
-3.903631 4.997335 68.875
-3.755537 5.0009632 68.925003
-3.607223 5.004591 68.974998
-3.457437 5.0064049 69.000008
-3.3075409 5.0082188 69.025002
-3.15868 5.011847 69.075005
-3.0085111 5.0136609 69.100006
-2.858232 5.0154738 69.125
-2.7088239 5.0191031 69.175003
-2.559196 5.0227299 69.224998
-2.409349 5.0263591 69.275002
-2.260098 5.0317998 69.350006
-7.28195 5.19099 69.450005
-7.1324372 5.1928582 69.474998
-6.9828162 5.1947269 69.500008
-6.8306279 5.1947269 69.500008
-6.6760378 5.1928582 69.474998
-6.5215559 5.19099 69.450005
-6.355721 5.1797781 69.300003
-6.1793518 5.159224 69.025002
-6.0151038 5.1480122 68.875
-5.8515129 5.1367998 68.724998
-5.6927261 5.1293259 68.625
-5.5343781 5.121851 68.525002
-5.3803959 5.118114 68.474998
-5.230453 5.118114 68.474998
-5.0805092 5.118114 68.474998
-4.9305658 5.118114 68.474998
-4.7823682 5.1199832 68.500008
-4.6357508 5.1237202 68.550003
-4.488915 5.1274571 68.600006
-4.3418589 5.1311941 68.650002
-4.1961122 5.1367998 68.724998
-4.048564 5.1405368 68.775002
-3.902215 5.146143 68.850006
-3.754174 5.1498799 68.900002
-3.6059151 5.1536179 68.950005
-3.457437 5.1573548 69.000008
-3.3087389 5.1610918 69.050003
-3.15868 5.162961 69.075005
-3.0085111 5.1648288 69.100006
-2.859266 5.1685662 69.150002
-2.7088239 5.170435 69.175003
-2.559196 5.1741719 69.224998
-2.410218 5.1797781 69.300003
-2.260098 5.183516 69.350006
-2.1135581 5.1965961 69.525002
-7.4179721 5.3313842 69.300003
-7.2714639 5.3352308 69.350006
-7.1221709 5.3371539 69.375
-6.9727678 5.339077 69.400002
-6.8207989 5.339077 69.400002
-6.6688309 5.339077 69.400002
-6.4933858 5.3198452 69.150002
-6.3167429 5.2986879 68.875
-6.156971 5.2909961 68.775002
-5.9976368 5.2833018 68.675003
-5.8387408 5.275609 68.574997
-5.6802831 5.2679162 68.474998
-5.5263019 5.26407 68.425003
-5.3745031 5.262146 68.400002
-5.2247238 5.262146 68.400002
-5.074944 5.262146 68.400002
-4.9251652 5.262146 68.400002
-4.7788768 5.2659931 68.450005
-4.63237 5.2698388 68.500008
-4.4856429 5.273685 68.550003
-4.3402781 5.2794561 68.625
-4.193059 5.2833018 68.675003
-4.0470929 5.289072 68.750008
-3.9007981 5.2948418 68.824997
-3.7528119 5.2986879 68.875
-3.6059151 5.3044581 68.950005
-3.458689 5.3102279 69.025002
-3.309937 5.314075 69.075005
-3.1598229 5.3159981 69.100006
-3.009599 5.3179221 69.125
-2.859266 5.3198452 69.150002
-2.7088239 5.3217678 69.175003
-2.559196 5.325614 69.224998
-2.410218 5.3313842 69.300003
-2.2609129 5.3371539 69.375
-2.1135581 5.3486938 69.525002
-7.404592 5.4731011 69.175003
-7.2557368 5.4750791 69.200005
-7.1093392 5.4790349 69.250008
-6.9602089 5.4810119 69.275002
-6.8035998 5.477057 69.224998
-6.630394 5.4592552 69.000008
-6.4605198 5.4434309 68.800003
-6.3029861 5.4374971 68.724998
-6.1435418 5.429585 68.625
-5.9845371 5.4216728 68.525002
-5.8280978 5.4157391 68.450005
-5.671988 5.4098048 68.375
-5.5182252 5.405849 68.325005
-5.3666458 5.4038711 68.300003
-5.2170849 5.4038711 68.300003
-5.0693798 5.405849 68.325005
-4.9215651 5.4078269 68.350006
-4.7753859 5.4117832 68.400002
-4.6289878 5.4157391 68.450005
-4.4823709 5.4196949 68.500008
-4.3371158 5.4256291 68.574997
-4.1900058 5.429585 68.625
-4.0441489 5.4355192 68.700005
-3.897964 5.441453 68.775002
-3.7528119 5.4493651 68.875
-3.6059151 5.4552989 68.950005
-3.458689 5.4612331 69.025002
-3.309937 5.465189 69.075005
-3.1598229 5.4671669 69.100006
-3.009599 5.4691439 69.125
-2.859266 5.4711232 69.150002
-2.7098031 5.4750791 69.200005
-2.559196 5.477057 69.224998
-2.411088 5.4849691 69.325005
-2.2617271 5.4909019 69.400002
-2.1143179 5.5027699 69.550003
-1.97401 5.536396 69.974998
-7.545145 5.616303 69.075005
-7.2400079 5.6142702 69.050003
-7.0862398 5.612237 69.025002
-6.9200211 5.6000409 68.875
-6.7593732 5.5919099 68.775002
-6.6015658 5.585813 68.700005
-6.446434 5.5817471 68.650002
-6.291522 5.577682 68.600006
-6.1345901 5.5715842 68.525002
-5.9758039 5.5634532 68.425003
-5.8174548 5.5553222 68.325005
-5.663692 5.5512571 68.275002
-5.512167 5.5492239 68.25
-5.3607531 5.5471911 68.225006
-5.2113571 5.5471911 68.225006
-5.0638151 5.5492239 68.25
-4.9179649 5.5532889 68.300003
-4.7701502 5.5553222 68.325005
-4.6239161 5.5593872 68.375
-4.4790988 5.565485 68.450005
-4.3323731 5.569551 68.500008
-4.186954 5.5756488 68.574997
-4.0426779 5.5837798 68.675003
-3.8965471 5.5898781 68.750008
-3.7514501 5.5980091 68.850006
-3.6046081 5.6041059 68.925003
-3.457437 5.6102052 69.000008
-3.3087389 5.6142702 69.050003
-3.1598229 5.6183348 69.100006
-3.009599 5.620368 69.125
-2.859266 5.6223998 69.150002
-2.7088239 5.624433 69.175003
-2.559196 5.6284981 69.224998
-2.410218 5.6345959 69.300003
-2.2617271 5.6427269 69.400002
-2.1135581 5.6528912 69.525002
-1.969779 5.6772828 69.825005
-7.5314908 5.7569799 68.950005
-7.377831 5.7548919 68.925003
-7.2242799 5.7528052 68.900002
-7.0631409 5.7444558 68.800003
-6.9024382 5.7361059 68.700005
-6.7446308 5.7298441 68.625
-6.5895538 5.7256689 68.574997
-6.4370441 5.7235818 68.550003
-6.2800579 5.717319 68.474998
-6.1233988 5.7110572 68.400002
-5.9648871 5.7027078 68.300003
-5.8089409 5.6964459 68.225006
-5.6553969 5.6922722 68.175003
-5.5040908 5.6901841 68.150002
-5.3528948 5.688097 68.125
-5.205627 5.6901841 68.150002
-5.0582509 5.6922722 68.175003
-4.9107652 5.6943588 68.200005
-4.764914 5.698534 68.25
-4.6205349 5.7047949 68.325005
-4.4741921 5.7089701 68.375
-4.3292098 5.7152319 68.450005
-4.1839008 5.7214952 68.525002
-4.0397348 5.7298441 68.625
-3.893713 5.7361059 68.700005
-3.7487259 5.7444558 68.800003
-3.6019931 5.7507181 68.875
-3.454931 5.7569799 68.950005
-3.306344 5.7611551 69.000008
-3.157537 5.7653289 69.050003
-3.0085111 5.7695041 69.100006
-2.858232 5.7715921 69.125
-2.707844 5.7736788 69.150002
-2.5582719 5.777854 69.200005
-2.409349 5.7841158 69.275002
-2.260098 5.7903781 69.350006
-2.112798 5.8029022 69.500008
-1.965547 5.8175139 69.675003
-1.81883 5.8362999 69.900009
-7.5232978 5.9013939 68.875
-7.367126 5.89711 68.824997
-7.211175 5.8928261 68.775002
-7.0503082 5.8842578 68.675003
-6.8898792 5.875689 68.574997
-6.7348032 5.8714051 68.525002
-6.5799451 5.8671212 68.474998
-6.4253058 5.8628368 68.425003
-6.2685938 5.856411 68.350006
-6.1122088 5.8499851 68.275002
-5.9561529 5.8435578 68.200005
-5.800426 5.837132 68.125
-5.6471009 5.8328481 68.075005
-5.4960151 5.8307061 68.050003
-5.347003 5.8307061 68.050003
-5.197989 5.8307061 68.050003
-5.0508308 5.8328481 68.075005
-4.905364 5.837132 68.125
-4.7596779 5.8414159 68.175003
-4.6137719 5.8456998 68.225006
-4.4692841 5.8521261 68.300003
-4.3244672 5.8585529 68.375
-4.1808481 5.8671212 68.474998
-4.0353189 5.8735471 68.550003
-3.8908789 5.8821149 68.650002
-3.7446389 5.8885412 68.724998
-3.5980711 5.894968 68.800003
-3.4511731 5.9013939 68.875
-3.3039479 5.9078202 68.950005
-3.155251 5.9121051 69.000008
-3.0063341 5.916389 69.050003
-2.8561649 5.9185309 69.075005
-2.706866 5.9228139 69.125
-2.5573471 5.9270992 69.175003
-2.4076099 5.9313831 69.224998
-2.2584679 5.937809 69.300003
-2.110518 5.9485202 69.425003
-1.962726 5.9613719 69.575005
-1.815578 5.978508 69.775002
-1.666958 5.9935031 69.950005
-7.5123758 6.043283 68.775002
-7.3564219 6.0388899 68.724998
-7.1980681 6.032299 68.650002
-7.0349088 6.0213161 68.525002
-6.8773198 6.0147262 68.450005
-6.722517 6.0103321 68.400002
-6.567934 6.005939 68.350006
-6.413568 6.001545 68.300003
-6.2571301 5.9949541 68.225006
-6.101018 5.9883642 68.150002
-5.9452372 5.9817739 68.075005
-5.789783 5.975183 68
-5.6388059 5.9729872 67.975006
-5.4879379 5.9707899 67.950005
-5.3391452 5.9707899 67.950005
-5.190351 5.9707899 67.950005
-5.0452671 5.975183 68
-4.8981638 5.9773812 68.025002
-4.752696 5.9817739 68.075005
-4.6070099 5.986167 68.125
-4.4627399 5.9927578 68.200005
-4.3197231 6.001545 68.300003
-4.1762691 6.0103321 68.400002
-4.0323758 6.0191188 68.500008
-3.8866279 6.0257092 68.574997
-3.741915 6.0344958 68.675003
-3.5941479 6.0388899 68.724998
-3.4474151 6.0454798 68.800003
-3.300354 6.0520701 68.875
-3.1518209 6.0564642 68.925003
-3.0030689 6.0608568 68.974998
-2.8540981 6.0652509 69.025002
-2.7049079 6.069644 69.075005
-2.5554991 6.074038 69.125
-2.4067409 6.0806279 69.200005
-2.257654 6.0872192 69.275002
-2.108238 6.0938091 69.350006
-1.959905 6.1047921 69.474998
-1.811675 6.1179729 69.625
-1.662787 6.1311541 69.775002
-1.513785 6.1465311 69.950005
-7.6713319 6.2004948 68.850006
-7.5041828 6.186986 68.700005
-7.3457189 6.180232 68.625
-7.1823401 6.1689749 68.500008
-7.0220752 6.1599689 68.400002
-6.8647609 6.153214 68.325005
-6.7077751 6.1464601 68.25
-6.555922 6.1442089 68.225006
-6.4018312 6.1397061 68.175003
-6.245666 6.1329522 68.100006
-6.089828 6.1261969 68.025002
-5.93432 6.1194429 67.950005
-5.77914 6.112689 67.875
-5.628437 6.1104369 67.850006
-5.4798622 6.1104369 67.850006
-5.3312869 6.1104369 67.850006
-5.1846218 6.112689 67.875
-5.037847 6.1149402 67.900002
-4.8909631 6.1171908 67.925003
-4.7457142 6.1216941 67.975006
-4.6019378 6.128448 68.050003
-4.4578319 6.1352029 68.125
-4.31498 6.1442089 68.225006
-4.171689 6.153214 68.325005
-4.0279608 6.16222 68.425003
-3.883795 6.171226 68.525002
-3.737828 6.1779809 68.600006
-3.5902259 6.1824832 68.650002
-3.4436569 6.1892381 68.724998
-3.295562 6.1937408 68.775002
-3.148391 6.2004948 68.850006
-2.9998031 6.204998 68.900002
-2.85203 6.2117519 68.974998
-2.70295 6.2162552 69.025002
-2.5536511 6.220758 69.075005
-2.4050009 6.2275119 69.150002
-2.2560239 6.2342672 69.224998
-2.1074779 6.2432728 69.325005
-1.9584939 6.2522779 69.425003
-1.809072 6.2612839 69.525002
-1.660404 6.2747931 69.675003
-1.510538 6.2860498 69.800003
-1.3601249 6.297307 69.925003
-7.651834 6.3349748 68.675003
-7.4932599 6.3280559 68.600006
-7.3296618 6.316525 68.474998
-7.1666131 6.3049941 68.350006
-7.0066772 6.2957702 68.25
-6.84969 6.2888522 68.175003
-6.6954889 6.2842388 68.125
-6.543911 6.2819328 68.100006
-6.3877449 6.2750139 68.025002
-6.2319078 6.268096 67.950005
-6.074162 6.258872 67.850006
-5.9212198 6.2542601 67.800003
-5.768497 6.2496471 67.75
-5.620142 6.2496471 67.75
-5.471786 6.2496471 67.75
-5.3234301 6.2496471 67.75
-5.1769838 6.2519531 67.775002
-5.0322819 6.256566 67.825005
-4.8855619 6.258872 67.850006
-4.740478 6.263484 67.900002
-4.5968661 6.270402 67.975006
-4.4529252 6.2773199 68.050003
-4.310236 6.2865448 68.150002
-4.16711 6.2957702 68.25
-4.0235462 6.3049941 68.350006
-3.879544 6.314219 68.450005
-3.733742 6.321137 68.525002
-3.586303 6.3257489 68.574997
-3.439899 6.3326678 68.650002
-3.2919681 6.3372812 68.700005
-3.1449621 6.3441982 68.775002
-2.9976261 6.3511171 68.850006
-2.8499629 6.358036 68.925003
-2.7009921 6.362648 68.974998
-2.552726 6.369566 69.050003
-2.4041319 6.3764849 69.125
-2.255209 6.3834028 69.200005
-2.1067181 6.3926268 69.300003
-1.9577889 6.4018521 69.400002
-1.808422 6.411077 69.500008
-1.6592129 6.4226069 69.625
-1.509456 6.4341378 69.750008
-1.3586659 6.4433632 69.850006
-1.207438 6.4525871 69.950005
