ply
format ascii 1.0
comment PCL generated
element vertex 1586
property float x
property float y
property float z
element face 0
element camera 0
property float view_px
property float view_py
property float view_pz
property float x_axisx
property float x_axisy
property float x_axisz
property float y_axisx
property float y_axisy
property float y_axisz
property float z_axisx
property float z_axisy
property float z_axisz
property float focal
property float scalex
property float scaley
property float centerx
property float centery
property int viewportx
property int viewporty
property float k1
property float k2
end_header
-3.4673271 6.9861488 66.300003
-3.3233991 6.9887838 66.325005
-3.1781631 6.9887838 66.325005
-3.03407 6.9914179 66.349998
-2.889869 6.9940519 66.375008
-2.7455571 6.9966869 66.400002
-2.601136 6.999321 66.425003
-2.455682 6.999321 66.425003
-2.3110969 7.001956 66.450005
-2.1664021 7.00459 66.475006
-2.020838 7.00459 66.475006
-1.8759789 7.0072231 66.5
-1.731011 7.0098581 66.525002
-1.585934 7.0124922 66.550003
-1.441828 7.0203948 66.625008
-1.297395 7.0282979 66.700005
-1.153064 7.038836 66.800003
-1.0082951 7.0493731 66.900002
-0.86308903 7.0599089 67
-0.71717697 7.067812 67.075005
-0.57115 7.0783501 67.175003
-0.42452601 7.0862522 67.25
-0.27747101 7.0915208 67.300003
-0.130197 7.0967898 67.350006
-6.3946991 7.4995828 69.724998
-6.2308278 7.4861379 69.600006
-6.0413041 7.4404259 69.175003
-5.8515129 7.392024 68.724998
-5.6947999 7.3839569 68.650002
-5.5343781 7.370512 68.525002
-5.2664628 7.2091742 67.025009
-5.1120558 7.1984162 66.925003
-4.9599419 7.1903501 66.849998
-4.8027558 7.1742158 66.700005
-4.642736 7.1527038 66.5
-4.4869738 7.13657 66.349998
-4.3351402 7.125814 66.25
-4.1869059 7.1204371 66.200005
-4.0404181 7.1177468 66.175003
-3.8955109 7.1177468 66.175003
-3.7520211 7.1204371 66.200005
-3.6084211 7.123126 66.225006
-3.4647119 7.125814 66.25
-3.3221459 7.1311932 66.300003
-3.1781631 7.1338811 66.325005
-3.03407 7.13657 66.349998
-2.889869 7.1392589 66.375008
-2.7455571 7.1419492 66.400002
-2.601136 7.1446381 66.425003
-2.45753 7.1500149 66.475006
-2.3119659 7.1500149 66.475006
-2.167217 7.1527038 66.5
-2.0215981 7.1527038 66.5
-1.876685 7.1553931 66.525002
-1.731011 7.1553931 66.525002
-1.585934 7.158083 66.550003
-1.441287 7.1634598 66.599998
-1.296908 7.1715269 66.675003
-1.1522011 7.179594 66.75
-1.007919 7.1930389 66.875008
-0.86276698 7.203795 66.975006
-0.71717697 7.21455 67.075005
-0.57115 7.225307 67.175003
-0.42468399 7.236063 67.275009
-0.277677 7.2441301 67.350006
-0.130294 7.2495079 67.400002
-6.3855281 7.6411438 69.625
-6.2173991 7.6219392 69.450005
-6.0478539 7.5999889 69.250008
-5.8706698 7.5670648 68.950005
-5.7030959 7.5451159 68.750008
-5.5404348 7.5286541 68.600006
-5.2644992 7.3530579 67
-5.1120558 7.3448272 66.925003
-4.9599419 7.336596 66.849998
-4.8027558 7.3201342 66.700005
-4.642736 7.2981849 66.5
-4.4852829 7.2789788 66.325005
-4.3335042 7.2680039 66.225006
-4.1853251 7.262517 66.175003
-4.037365 7.25703 66.125008
-3.8940389 7.2597728 66.150002
-3.750603 7.262517 66.175003
-3.607059 7.2652612 66.200005
-3.4647119 7.2707481 66.25
-3.3221459 7.2762361 66.300003
-3.1793611 7.2817221 66.349998
-3.0363569 7.28721 66.400002
-2.892045 7.2899542 66.425003
-2.7476251 7.292697 66.450005
-2.604073 7.2981849 66.5
-2.459379 7.3009281 66.525002
-2.314575 7.3036718 66.550003
-2.1688471 7.3036718 66.550003
-2.023118 7.3036718 66.550003
-1.87739 7.3036718 66.550003
-1.731662 7.3036718 66.550003
-1.585934 7.3036718 66.550003
-1.441287 7.3091588 66.599998
-1.296422 7.3146472 66.650002
-1.151769 7.3228779 66.725006
-1.007542 7.336596 66.849998
-0.86276698 7.3503151 66.975006
-0.717444 7.3640318 67.099998
-0.57157499 7.3777509 67.225006
-0.42500001 7.3887262 67.325005
-0.277987 7.3997011 67.425003
-0.130439 7.4051881 67.475006
-6.2106848 7.7654781 69.375
-6.0500369 7.7542839 69.275002
-5.8834419 7.7346959 69.100006
-5.707243 7.7011151 68.800003
-5.5384159 7.67593 68.574997
-5.2644992 7.4996319 67
-5.1120558 7.4912381 66.925003
-4.9599419 7.482842 66.849998
-4.8027558 7.466053 66.700005
-4.6462269 7.4492621 66.550003
-4.4869738 7.4268751 66.349998
-4.3351402 7.4156809 66.25
-4.1853251 7.4072862 66.175003
-4.0388918 7.404489 66.150002
-3.8940389 7.404489 66.150002
-3.750603 7.4072862 66.175003
-3.6097829 7.4156809 66.25
-3.4673271 7.421278 66.300003
-3.324651 7.4268751 66.349998
-3.181757 7.4324722 66.400002
-3.0386441 7.4380689 66.450005
-2.8953111 7.443665 66.5
-2.750726 7.4464641 66.525002
-2.6070099 7.4520602 66.575005
-2.462152 7.4548588 66.599998
-2.316314 7.4548588 66.599998
-2.170476 7.4548588 66.599998
-2.0246379 7.4548588 66.599998
-1.878095 7.4520602 66.575005
-1.732312 7.4520602 66.575005
-1.586529 7.4520602 66.575005
-1.4407459 7.4520602 66.575005
-1.295936 7.4576569 66.625008
-1.151338 7.466053 66.700005
-1.007165 7.4800439 66.825005
-0.862445 7.4940362 66.950005
-0.717444 7.5108261 67.099998
-0.571787 7.527616 67.25
-0.42531499 7.5416079 67.375008
-0.278193 7.5528021 67.475006
-0.130536 7.5583992 67.525009
-6.2151608 7.922955 69.425003
-6.0565872 7.9143958 69.350006
-5.885571 7.8887181 69.125
-5.7030959 7.845922 68.750008
-5.5202441 7.8002729 68.350006
-5.2644992 7.6462069 67
-5.1120558 7.6376481 66.925003
-4.9599419 7.6290889 66.849998
-4.8027558 7.6119709 66.700005
-4.6462269 7.5948529 66.550003
-4.490355 7.577734 66.400002
-4.3384118 7.5663218 66.300003
-4.188488 7.5577631 66.225006
-4.041945 7.5549102 66.200005
-3.8969829 7.5549102 66.200005
-3.754854 7.5606151 66.25
-3.6125081 7.5663218 66.300003
-3.4712491 7.5748811 66.375008
-3.3296621 7.5834398 66.450005
-3.186548 7.5891471 66.5
-3.043216 7.5948529 66.550003
-2.8996651 7.6005592 66.599998
-2.7548611 7.6034122 66.625008
-2.6109259 7.609118 66.675003
-2.4649241 7.609118 66.675003
-2.319792 7.6119709 66.700005
-2.17292 7.609118 66.675003
-2.0261581 7.6062651 66.650002
-1.879506 7.6034122 66.625008
-1.732963 7.6005592 66.599998
-1.586529 7.5977058 66.575005
-1.441287 7.6005592 66.599998
-1.295936 7.6034122 66.625008
-1.151338 7.6119709 66.700005
-1.006788 7.623384 66.800003
-0.862445 7.640502 66.950005
-0.71771199 7.6604729 67.125008
-0.57221198 7.6804438 67.300003
-0.42563099 7.6947088 67.425003
-0.27839899 7.7061219 67.525009
-0.130632 7.7118282 67.575005
-6.224113 8.0864649 69.525002
-6.0675039 8.0806494 69.474998
-5.8685422 8.0166798 68.925003
-5.6865048 7.973062 68.550003
-5.4879379 7.903276 67.950005
-5.270391 7.8015051 67.075005
-5.110147 7.7811508 66.900002
-4.956233 7.7695198 66.800003
-4.8009558 7.754981 66.675003
-4.6462269 7.7404418 66.550003
-4.4937372 7.7288108 66.450005
-4.3416829 7.7171798 66.349998
-4.1932311 7.7113652 66.300003
-4.046524 7.708457 66.275002
-3.901397 7.708457 66.275002
-3.759105 7.714272 66.325005
-3.619318 7.725904 66.425003
-3.4790931 7.737535 66.525002
-3.3359261 7.74335 66.575005
-3.193737 7.7520738 66.650002
-3.0489321 7.754981 66.675003
-2.905107 7.760797 66.725006
-2.7600291 7.7637038 66.75
-2.6148419 7.766613 66.775009
-2.468621 7.766613 66.775009
-2.3224001 7.766613 66.775009
-2.175364 7.7637038 66.75
-2.027678 7.7578888 66.700005
-1.880916 7.754981 66.675003
-1.733613 7.749166 66.625008
-1.5871249 7.7462578 66.599998
-1.441287 7.7462578 66.599998
-1.295936 7.749166 66.625008
-1.150906 7.754981 66.675003
-1.006411 7.766613 66.775009
-0.86180103 7.7811508 66.900002
-0.71771199 7.8073211 67.125008
-0.57242501 7.8305831 67.325005
-0.425789 7.8451209 67.450005
-0.27860501 7.8596601 67.575005
-0.130729 7.8654761 67.625008
-6.2397799 8.2593002 69.700005
-6.082787 8.2533751 69.650002
-5.8387408 8.1259899 68.574997
-5.6595449 8.0845165 68.225006
-5.4758239 8.0341549 67.800003
-5.2939639 7.9837928 67.375008
-5.1044178 7.9186192 66.825005
-4.9506679 7.9067688 66.725006
-4.7991562 7.897882 66.650002
-4.6462269 7.8860321 66.550003
-4.4954271 7.8771448 66.475006
-4.344955 7.868258 66.400002
-4.1979742 7.8652949 66.375008
-4.052629 7.8652949 66.375008
-3.908756 7.868258 66.400002
-3.7690229 7.8801069 66.5
-3.6302159 7.8949199 66.625008
-3.488245 7.9038072 66.700005
-3.3446939 7.9097309 66.75
-3.2009239 7.915657 66.800003
-3.0557921 7.9186192 66.825005
-2.9105489 7.9215808 66.849998
-2.765198 7.9245439 66.875008
-2.618758 7.9245439 66.875008
-2.4723179 7.9245439 66.875008
-2.3250091 7.9215808 66.849998
-2.177809 7.9186192 66.825005
-2.029958 7.912694 66.775009
-1.882327 7.9067688 66.725006
-1.7349139 7.9008451 66.675003
-1.587721 7.8949199 66.625008
-1.441287 7.8919568 66.599998
-1.295936 7.8949199 66.625008
-1.150906 7.9008451 66.675003
-1.006411 7.912694 66.775009
-0.86147898 7.9245439 66.875008
-0.717444 7.9512062 67.099998
-0.57242501 7.9778681 67.325005
-0.425946 7.9956431 67.475006
-0.27870801 8.0104551 67.600006
-0.130777 8.0163803 67.650002
-6.2464938 8.4208336 69.775002
-6.0915208 8.4178162 69.750008
-5.821712 8.251873 68.375
-5.6408801 8.2066164 68
-5.473805 8.1794624 67.775002
-5.3136082 8.1613588 67.625008
-5.0986891 8.0557594 66.75
-4.9469581 8.0467081 66.675003
-4.7973561 8.0406742 66.625008
-4.6462269 8.0316229 66.550003
-4.4954271 8.0225716 66.475006
-4.348228 8.0195541 66.450005
-4.2027178 8.0195541 66.450005
-4.0587349 8.0225716 66.475006
-3.9175861 8.0316229 66.550003
-3.780359 8.0497255 66.700005
-3.6383891 8.0587778 66.775009
-3.4960899 8.0678272 66.849998
-3.35221 8.073863 66.900002
-3.206913 8.0768805 66.925003
-3.0615079 8.0798969 66.950005
-2.915992 8.0829134 66.975006
-2.7693329 8.0829134 66.975006
-2.622674 8.0829134 66.975006
-2.475091 8.0798969 66.950005
-2.3276169 8.0768805 66.925003
-2.1794381 8.0708456 66.875008
-2.0314779 8.0648108 66.825005
-1.883032 8.0557594 66.75
-1.7355649 8.0497255 66.700005
-1.588316 8.0436907 66.650002
-1.442369 8.0436907 66.650002
-1.296422 8.0436907 66.650002
-1.151338 8.0497255 66.700005
-1.006411 8.0587778 66.775009
-0.86180103 8.073863 66.900002
-0.71771199 8.101017 67.125008
-0.57242501 8.1251535 67.325005
-0.425946 8.1432562 67.475006
-0.27870801 8.1583424 67.600006
-0.130826 8.1673937 67.675003
-6.1002541 8.5826941 69.850006
-5.8068118 8.3799534 68.200005
-5.6305108 8.3400202 67.875
-5.473805 8.3277321 67.775002
-5.3136082 8.3093014 67.625008
-5.0929599 8.1925716 66.675003
-4.9432492 8.1864281 66.625008
-4.793756 8.1802855 66.575005
-4.6444821 8.17414 66.525002
-4.497118 8.1710691 66.5
-4.3514991 8.1710691 66.5
-4.2074609 8.17414 66.525002
-4.0663671 8.1833553 66.599998
-3.9264159 8.1956434 66.700005
-3.7874429 8.2110023 66.825005
-3.6452 8.2202177 66.900002
-3.5013199 8.2263622 66.950005
-3.3572209 8.2325048 67
-3.2117059 8.2355776 67.025009
-3.0660801 8.2386494 67.050003
-2.9203451 8.2417202 67.075005
-2.773468 8.2417202 67.075005
-2.6256111 8.2386494 67.050003
-2.477864 8.2355776 67.025009
-2.329356 8.229434 66.975006
-2.1810679 8.2232904 66.925003
-2.0329981 8.2171459 66.875008
-1.884443 8.2079306 66.800003
-1.736866 8.201787 66.75
-1.590104 8.1987152 66.725006
-1.443451 8.1956434 66.700005
-1.297395 8.1956434 66.700005
-1.1522011 8.201787 66.75
-1.007165 8.2110023 66.825005
-0.86308903 8.2325048 67
-0.71824598 8.2540083 67.175003
-0.57263798 8.2755108 67.350006
-0.425946 8.2908707 67.475006
-0.27870801 8.3062296 67.600006
-0.13087399 8.3185167 67.700005
-5.7961688 8.5135202 68.075005
-5.628437 8.4853821 67.850006
-5.4758239 8.4791288 67.800003
-5.297893 8.43223 67.425003
-5.0910511 8.335309 66.650002
-4.9413929 8.3290558 66.599998
-4.793756 8.3259296 66.575005
-4.6444821 8.3196754 66.525002
-4.4988079 8.3196754 66.525002
-4.3547711 8.3228025 66.550003
-4.212204 8.3290558 66.599998
-4.072473 8.3415623 66.700005
-3.932303 8.3540678 66.800003
-3.7931111 8.3696985 66.925003
-3.6506491 8.3790798 67
-3.5065501 8.3853331 67.050003
-3.362232 8.3915854 67.099998
-3.2164979 8.3947124 67.125008
-3.070653 8.3978386 67.150002
-2.9236109 8.3978386 67.150002
-2.7765689 8.3978386 67.150002
-2.6285479 8.3947124 67.125008
-2.479712 8.3884592 67.075005
-2.331965 8.3853331 67.050003
-2.1826971 8.3759527 66.975006
-2.034518 8.3696985 66.925003
-1.8865581 8.3634472 66.875008
-1.738817 8.3571939 66.825005
-1.5918911 8.3540678 66.800003
-1.445074 8.3509417 66.775009
-1.298854 8.3509417 66.775009
-1.153496 8.3571939 66.825005
-1.0090491 8.3728266 66.950005
-0.86469901 8.3947124 67.125008
-0.71931601 8.4134722 67.275009
-0.57306302 8.4291039 67.400002
-0.42610401 8.4416103 67.5
-0.27881101 8.457243 67.625008
-0.130971 8.4728756 67.75
-5.789783 8.6529036 68
-5.628437 8.6338158 67.850006
-5.473805 8.6242723 67.775002
-5.272356 8.5383787 67.099998
-5.0891409 8.4779367 66.625008
-4.939538 8.4715738 66.575005
-4.791955 8.4683933 66.550003
-4.6444821 8.4652109 66.525002
-4.5004988 8.4683933 66.550003
-4.3564072 8.4715738 66.575005
-4.2153668 8.4811172 66.650002
-4.0755248 8.4938421 66.75
-3.936718 8.5097485 66.875008
-3.7959449 8.5224733 66.975006
-3.653373 8.5320177 67.050003
-3.5104721 8.5415611 67.125008
-3.3659899 8.5479231 67.175003
-3.2200911 8.5511045 67.200005
-3.0740831 8.554286 67.225006
-2.9268761 8.554286 67.225006
-2.778636 8.5511045 67.200005
-2.630506 8.5479231 67.175003
-2.48156 8.5415611 67.125008
-2.332834 8.5351982 67.075005
-2.1843269 8.5288363 67.025009
-2.0360379 8.5224733 66.975006
-1.888674 8.5192928 66.950005
-1.741419 8.5161104 66.925003
-1.594274 8.5129299 66.900002
-1.44778 8.5129299 66.900002
-1.301771 8.5161104 66.925003
-1.157379 8.5320177 67.050003
-1.012817 8.5511045 67.200005
-0.86695403 8.5638294 67.300003
-0.72038502 8.5733728 67.375008
-0.57370001 8.5860977 67.475006
-0.42642 8.5956421 67.550003
-0.279017 8.6115475 67.675003
-0.13213 8.6974401 68.350006
-5.7833982 8.7919569 67.925003
-5.628437 8.7822495 67.850006
-5.4758239 8.7757778 67.800003
-5.2880712 8.7110596 67.300003
-5.0891409 8.6236906 66.625008
-4.939538 8.617218 66.575005
-4.791955 8.6139822 66.550003
-4.6444821 8.6107454 66.525002
-4.5004988 8.6139822 66.550003
-4.3580418 8.6204538 66.599998
-4.216948 8.6301613 66.675003
-4.078578 8.6463413 66.800003
-3.938189 8.6592846 66.900002
-3.7973621 8.6722288 67
-3.6560969 8.6851711 67.099998
-3.513087 8.6948795 67.175003
-3.368495 8.7013512 67.225006
-3.222487 8.704587 67.25
-3.076369 8.7078238 67.275009
-2.9290531 8.7078238 67.275009
-2.780704 8.704587 67.25
-2.6324639 8.7013512 67.225006
-2.4834089 8.6948795 67.175003
-2.334573 8.6884079 67.125008
-2.185956 8.6819363 67.075005
-2.0383179 8.6787004 67.050003
-1.89079 8.6754646 67.025009
-1.743371 8.6722288 67
-1.597253 8.6754646 67.025009
-1.452108 8.6851711 67.099998
-1.307606 8.7013512 67.225006
-1.161695 8.7110596 67.300003
-1.015455 8.720768 67.375008
-0.86856401 8.7272387 67.425003
-0.72145402 8.7337103 67.475006
-0.57433802 8.7434187 67.550003
-0.42705101 8.756362 67.650002
-0.280873 8.8178444 68.125
-0.132759 8.8890343 68.675003
-5.7812691 8.9372654 67.900002
-5.6263628 8.927393 67.825005
-5.4758239 8.9241028 67.800003
-5.3136082 8.9010687 67.625008
-5.0929599 8.7760258 66.675003
-4.9413929 8.7661533 66.599998
-4.793756 8.7628632 66.575005
-4.6444821 8.7562819 66.525002
-4.5004988 8.759572 66.550003
-4.3580418 8.7661533 66.599998
-4.216948 8.7760258 66.675003
-4.078578 8.7924786 66.800003
-3.938189 8.8056412 66.900002
-3.798779 8.822094 67.025009
-3.657459 8.8352566 67.125008
-3.514395 8.8451281 67.200005
-3.3697481 8.8517094 67.25
-3.2248831 8.8582907 67.300003
-3.078655 8.8615808 67.325005
-2.9312301 8.8615808 67.325005
-2.7827711 8.8582907 67.300003
-2.6334431 8.8517094 67.25
-2.4852569 8.8484192 67.225006
-2.3363121 8.8418369 67.175003
-2.1875861 8.8352566 67.125008
-2.0398381 8.8319654 67.099998
-1.8922 8.8286753 67.075005
-1.745973 8.8319654 67.099998
-1.600232 8.8385468 67.150002
-1.455354 8.8517094 67.25
-1.310524 8.8681622 67.375008
-1.163852 8.8747435 67.425003
-1.017338 8.8846149 67.5
-0.86985201 8.8879061 67.525009
-0.72252297 8.8944864 67.575005
-0.57497603 8.9010687 67.625008
-0.42799801 8.9241028 67.800003
-0.28314 9.0392742 68.675003
-5.77914 9.0824633 67.875
-5.62429 9.0724277 67.800003
-5.473805 9.0690823 67.775002
-5.3155718 9.0523558 67.650002
-5.1005988 8.9352713 66.775009
-4.9432492 8.9151993 66.625008
-4.7955561 8.9118528 66.599998
-4.6462269 8.9051638 66.550003
-4.5004988 8.9051638 66.550003
-4.3580418 8.9118528 66.599998
-4.216948 8.9218893 66.675003
-4.0770521 8.9352713 66.775009
-3.938189 8.9519968 66.900002
-3.798779 8.9687233 67.025009
-3.657459 8.9821053 67.125008
-3.515702 8.9954863 67.225006
-3.371001 9.0021763 67.275009
-3.2260809 9.0088663 67.325005
-3.0797989 9.0122128 67.350006
-2.9323189 9.0122128 67.350006
-2.7838049 9.0088663 67.325005
-2.6344221 9.0021763 67.275009
-2.486181 8.9988308 67.25
-2.337182 8.9921408 67.200005
-2.1892149 8.9887943 67.175003
-2.041358 8.9854498 67.150002
-1.894316 8.9854498 67.150002
-1.748575 8.9921408 67.200005
-1.603211 9.0021763 67.275009
-1.458059 9.0155582 67.375008
-1.312469 9.0289383 67.475006
-1.165579 9.0356302 67.525009
-1.018469 9.0423193 67.575005
-0.87114 9.0490103 67.625008
-0.72332501 9.0523558 67.650002
-0.576038 9.0657368 67.75
-0.43415299 9.2028942 68.775002
-5.7770119 9.2275515 67.850006
-5.6222162 9.2173519 67.775002
-5.473805 9.2173519 67.775002
-5.3175359 9.2037516 67.675003
-5.1120558 9.1017513 66.925003
-4.9469581 9.0677519 66.675003
-4.7973561 9.0609531 66.625008
-4.6479731 9.0541515 66.575005
-4.5021901 9.0541515 66.575005
-4.3580418 9.0575514 66.599998
-4.2153668 9.064352 66.650002
-4.0755248 9.0779524 66.75
-3.936718 9.0949516 66.875008
-3.7973621 9.1119518 67
-3.657459 9.128952 67.125008
-3.514395 9.1391516 67.200005
-3.371001 9.1493521 67.275009
-3.2260809 9.1561518 67.325005
-3.0797989 9.1595526 67.350006
-2.9323189 9.1595526 67.350006
-2.7838049 9.1561518 67.325005
-2.635401 9.1527519 67.300003
-2.4871061 9.1493521 67.275009
-2.3380511 9.1425514 67.225006
-2.1900301 9.1391516 67.200005
-2.0428779 9.1391516 67.200005
-1.896432 9.1425514 67.225006
-1.750527 9.1493521 67.275009
-1.605594 9.1629524 67.375008
-1.4607641 9.1799517 67.5
-1.314414 9.1901512 67.575005
-1.167305 9.1969519 67.625008
-1.019976 9.2037516 67.675003
-0.87210602 9.2071514 67.700005
-0.72412699 9.2105513 67.725006
-0.58517897 9.3601503 68.824997
-5.7812691 9.3828955 67.900002
-5.62429 9.3690767 67.800003
-5.473805 9.3656216 67.775002
-5.3136082 9.3448935 67.625008
-5.113966 9.2516174 66.950005
-4.9506679 9.2205257 66.725006
-4.8009558 9.2136164 66.675003
-4.6497178 9.2032518 66.599998
-4.50388 9.2032518 66.599998
-4.3580418 9.2032518 66.599998
-4.2153668 9.2101612 66.650002
-4.0739989 9.2205257 66.725006
-3.935246 9.2377987 66.849998
-3.7959449 9.2550726 66.975006
-3.6560969 9.2723455 67.099998
-3.514395 9.2861643 67.200005
-3.371001 9.2965279 67.275009
-3.2260809 9.3034372 67.325005
-3.0797989 9.3068924 67.350006
-2.9323189 9.3068924 67.350006
-2.7838049 9.3034372 67.325005
-2.635401 9.299983 67.300003
-2.4871061 9.2965279 67.275009
-2.3389201 9.2930737 67.25
-2.191659 9.2930737 67.25
-2.0443981 9.2930737 67.25
-1.898548 9.299983 67.300003
-1.753129 9.3103466 67.375008
-1.607977 9.3241653 67.475006
-1.4629281 9.3414392 67.600006
-1.316359 9.3518028 67.675003
-1.169031 9.3587122 67.725006
-1.021106 9.3621674 67.75
-0.88595402 9.503809 68.775002
-0.73615599 9.5141745 68.850006
-9.2389736 9.7279634 69.300003
-9.0839453 9.7244539 69.275002
-8.9354715 9.7279634 69.300003
-8.831254 9.7806044 69.675003
-5.91537 9.7525282 69.474998
-5.6305108 9.5279303 67.875
-5.4758239 9.5174017 67.800003
-5.3136082 9.492836 67.625008
-5.113966 9.3980837 66.950005
-4.9543781 9.373518 66.775009
-4.806356 9.3700085 66.75
-4.654954 9.3594799 66.675003
-4.5055709 9.3524609 66.625008
-4.3596792 9.3524609 66.625008
-4.216948 9.3594799 66.675003
-4.0739989 9.3664989 66.725006
-3.933774 9.3805361 66.825005
-3.794528 9.3980837 66.950005
-3.653373 9.4121199 67.050003
-3.5117791 9.426158 67.150002
-3.368495 9.4366875 67.225006
-3.223685 9.4437046 67.275009
-3.077513 9.4472141 67.300003
-2.9301419 9.4472141 67.300003
-2.7827711 9.4472141 67.300003
-2.6344221 9.4437046 67.275009
-2.4871061 9.4437046 67.275009
-2.3397901 9.4437046 67.275009
-2.1924739 9.4437046 67.275009
-2.0466781 9.4507236 67.325005
-1.900663 9.4577427 67.375008
-1.75508 9.4682713 67.450005
-1.61036 9.485817 67.575005
-1.465633 9.5068731 67.725006
-1.318791 9.5174017 67.800003
-1.1767991 9.5700417 68.175003
-1.036178 9.6507578 68.750008
-0.88659799 9.6612844 68.824997
-0.74604601 9.7946405 69.775002
-5.6533232 9.7156219 68.150002
-5.4899578 9.6906738 67.975006
-5.321465 9.6550331 67.725006
-5.117785 9.5516758 67
-4.958087 9.5267277 66.825005
-4.808157 9.519599 66.775009
-4.6584449 9.5124702 66.725006
-4.510643 9.5089073 66.700005
-4.3629498 9.5053415 66.675003
-4.2185292 9.5089073 66.700005
-4.0755248 9.5160351 66.75
-3.933774 9.5267277 66.825005
-3.7916939 9.5374193 66.900002
-3.6506491 9.5516758 67
-3.509165 9.5659313 67.099998
-3.3659899 9.5766239 67.175003
-3.2212889 9.5837517 67.225006
-3.0752261 9.5873175 67.25
-2.9279649 9.5873175 67.25
-2.780704 9.5873175 67.25
-2.6334431 9.5873175 67.25
-2.486181 9.5873175 67.25
-2.3397901 9.5908804 67.275009
-2.193289 9.5944443 67.300003
-2.048198 9.6051369 67.375008
-1.902779 9.6158295 67.450005
-1.758332 9.6336479 67.575005
-1.615126 9.6621618 67.775002
-1.4710439 9.6906738 67.975006
-1.33192 9.7619553 68.474998
-1.184998 9.7869034 68.650002
-1.0358011 9.797595 68.724998
-5.1693449 9.7959566 67.675003
-4.965507 9.6873941 66.925003
-4.8117571 9.6729193 66.825005
-4.6619358 9.6656818 66.775009
-4.5140238 9.6620626 66.75
-4.3662219 9.6584435 66.725006
-4.2201099 9.6584435 66.725006
-4.0755248 9.6620626 66.75
-3.932303 9.669301 66.800003
-3.790278 9.6801567 66.875008
-3.6479239 9.6910133 66.950005
-3.5065501 9.7054882 67.050003
-3.362232 9.7127247 67.099998
-3.217695 9.7199631 67.150002
-3.070653 9.7199631 67.150002
-2.9236109 9.7199631 67.150002
-2.7765689 9.7199631 67.150002
-2.6295271 9.7199631 67.150002
-2.4834089 9.7235813 67.175003
-2.3389201 9.7344379 67.25
-2.194104 9.7452936 67.325005
-2.0497179 9.7597675 67.425003
-1.9056 9.7778625 67.550003
-9.0122709 9.7483435 64.425003
-8.8711958 9.7483435 64.425003
-8.7368975 9.755909 64.475006
-8.60571 9.7672567 64.550003
-5.0972028 2.7302351 68.700005
-4.78935 2.7262609 68.600006
-5.2495489 2.881577 68.724998
-5.0953479 2.8794799 68.675003
-4.9431672 2.878432 68.650002
-4.7876039 2.8752871 68.574997
-4.6306791 2.871094 68.474998
-4.4741921 2.8669021 68.375
-4.3181419 2.862709 68.275002
-5.2476401 3.030822 68.700005
-5.093493 3.028616 68.650002
-4.9413671 3.027514 68.625
-4.7841129 3.023102 68.525002
-4.6272979 3.0186901 68.425003
-4.4709201 3.0142779 68.325005
-4.31498 3.009867 68.225006
-4.161005 3.0065579 68.150002
-4.0088301 3.0043521 68.100006
-5.2457299 3.1799581 68.675003
-5.091639 3.1776431 68.625
-4.9377661 3.175328 68.574997
-4.780622 3.170697 68.474998
-4.6222262 3.1649089 68.350006
-4.466012 3.160279 68.25
-4.3118181 3.156806 68.175003
-4.1594782 3.15449 68.125
-4.0073581 3.1521749 68.075005
-3.8597071 3.1533329 68.100006
-3.713309 3.155648 68.150002
-5.2457299 3.3301971 68.675003
-5.0897841 3.32656 68.600006
-4.934166 3.3229229 68.525002
-4.7753859 3.3168609 68.400002
-4.6171541 3.3108001 68.275002
-4.4611049 3.3059511 68.175003
-4.3070741 3.302314 68.100006
-4.1548991 3.2998891 68.050003
-4.0058861 3.2998891 68.050003
-3.85829 3.301101 68.075005
-3.711947 3.3035259 68.125
-3.5666921 3.307163 68.200005
-3.423614 3.3132241 68.325005
-3.2823851 3.3217111 68.500008
-3.1461051 3.3362579 68.800003
-5.4020052 3.484237 68.750008
-5.2438202 3.4791689 68.650002
-5.0879278 3.475368 68.574997
-4.9305658 3.4703 68.474998
-4.7701502 3.462698 68.325005
-4.612082 3.456363 68.200005
-4.4561968 3.4512949 68.100006
-4.30233 3.447494 68.025002
-4.1518459 3.4462271 68
-4.002943 3.4462271 68
-3.8554561 3.447494 68.025002
-3.7092221 3.450027 68.075005
-3.5640769 3.4538291 68.150002
-3.4198561 3.4588971 68.25
-3.2775929 3.4664979 68.400002
-3.140389 3.4804361 68.675003
-2.9987149 3.490572 68.875
-2.850996 3.4943731 68.950005
-5.560627 3.639926 68.850006
-5.4020052 3.63464 68.750008
-5.2438202 3.629353 68.650002
-5.0860739 3.6240661 68.550003
-4.9269662 3.6174581 68.425003
-4.7666588 3.6095281 68.275002
-4.6070099 3.601598 68.125
-4.4512892 3.5963111 68.025002
-4.2975869 3.592346 67.950005
-4.1472669 3.5910239 67.925003
-3.998528 3.5910239 67.925003
-3.8512061 3.592346 67.950005
-3.7051361 3.5949891 68
-3.560154 3.598954 68.075005
-3.414845 3.6029191 68.150002
-3.2716031 3.6095281 68.275002
-3.132386 3.621423 68.500008
-2.9954491 3.6372831 68.800003
-2.8489289 3.64257 68.900002
-2.699034 3.643892 68.925003
-2.549953 3.6465349 68.974998
-5.719687 3.7960539 68.950005
-5.560627 3.7905481 68.850006
-5.4020052 3.785043 68.750008
-5.2438202 3.779537 68.650002
-5.084219 3.772655 68.525002
-4.9215651 3.763021 68.350006
-4.7596779 3.753386 68.175003
-4.6002469 3.7451279 68.025002
-4.444746 3.7396221 67.925003
-4.2928429 3.7368701 67.875
-4.141161 3.734117 67.825005
-3.992641 3.734117 67.825005
-3.8455379 3.7354929 67.850006
-3.699687 3.738246 67.900002
-3.553618 3.740999 67.950005
-3.4098339 3.7465041 68.050003
-3.2656131 3.7520101 68.150002
-3.1255269 3.763021 68.350006
-2.9921839 3.7836659 68.724998
-2.8458281 3.7891719 68.824997
-2.6960969 3.7905481 68.850006
-2.5471809 3.7933011 68.900002
-2.3928289 3.787796 68.800003
-2.2527649 3.8056879 69.125
-5.9324002 3.988395 69.675003
-5.7176132 3.9454629 68.925003
-5.560627 3.94117 68.850006
-5.4020052 3.935446 68.750008
-5.2419109 3.9282899 68.625
-5.0805092 3.919703 68.474998
-4.9143648 3.9068241 68.25
-4.7509508 3.895375 68.050003
-4.5934849 3.8882201 67.925003
-4.4382019 3.8824961 67.825005
-4.2865191 3.8796339 67.775002
-4.1365819 3.8782029 67.75
-3.9867539 3.876771 67.725006
-3.83987 3.8782029 67.75
-3.6928761 3.8796339 67.775002
-3.54708 3.8824961 67.825005
-3.402318 3.8867891 67.900002
-3.258425 3.892513 68
-3.1186681 3.9039619 68.200005
-2.9878299 3.9282899 68.625
-2.8427269 3.935446 68.750008
-2.6921811 3.935446 68.750008
-2.541636 3.935446 68.750008
-2.3876121 3.9297211 68.650002
-2.234026 3.9239969 68.550003
-2.0823979 3.9211349 68.500008
-1.931695 3.919703 68.474998
-6.1089869 4.1571651 69.950005
-5.8919559 4.1125922 69.200005
-5.715539 4.0947628 68.900002
-5.5565882 4.08882 68.800003
-5.3980761 4.0828772 68.700005
-5.238091 4.075448 68.574997
-5.0730901 4.0635619 68.375
-4.8999629 4.0442472 68.050003
-4.740478 4.0353322 67.900002
-4.5867219 4.0308752 67.825005
-4.4332938 4.0264182 67.75
-4.281775 4.023447 67.700005
-4.1320028 4.0219598 67.675003
-3.9823389 4.0204749 67.650002
-3.8342021 4.0204749 67.650002
-3.687427 4.0219598 67.675003
-3.5405431 4.023447 67.700005
-3.3948021 4.0264182 67.75
-3.2500401 4.0308752 67.825005
-3.1072359 4.0383039 67.950005
-2.9791231 4.066534 68.425003
-2.836524 4.0769339 68.600006
-2.6872859 4.0784202 68.625
-2.5360899 4.0769339 68.600006
-2.3832641 4.0724759 68.525002
-2.2323971 4.070991 68.500008
-2.0816381 4.0695052 68.474998
-1.931695 4.0695052 68.474998
-1.782402 4.070991 68.500008
-6.2576852 4.3071132 69.900009
-6.0893369 4.296329 69.724998
-5.8983421 4.2686009 69.275002
-5.7093172 4.2408719 68.824997
-5.5505309 4.2347112 68.724998
-5.394146 4.2300901 68.650002
-5.2323632 4.2208471 68.500008
-5.056396 4.1992798 68.150002
-4.889163 4.183876 67.900002
-4.7334971 4.1777139 67.800003
-4.5816498 4.174633 67.75
-4.4283862 4.170012 67.675003
-4.2770319 4.1669312 67.625008
-4.1274238 4.16539 67.600006
-3.9779241 4.1638498 67.575005
-3.829951 4.1638498 67.575005
-3.6819789 4.1638498 67.575005
-3.5353141 4.16539 67.600006
-3.389791 4.1684709 67.650002
-3.24405 4.1715522 67.700005
-3.0980899 4.174633 67.75
-2.956265 4.183876 67.900002
-2.829288 4.2162261 68.425003
-2.680433 4.2177658 68.450005
-2.530545 4.2177658 68.450005
-2.379786 4.2162261 68.425003
-2.2299521 4.2162261 68.425003
-2.080878 4.2177658 68.450005
-1.931695 4.219306 68.474998
-1.782402 4.2208471 68.500008
-1.6329989 4.2223868 68.525002
-6.4061632 4.456841 69.850006
-6.2420182 4.4488649 69.724998
-6.082787 4.4440789 69.650002
-5.9111142 4.4297228 69.425003
-5.7030959 4.3866539 68.750008
-5.5444741 4.3802729 68.650002
-5.3862891 4.3738928 68.550003
-5.2189951 4.3595371 68.325005
-5.0397019 4.3340149 67.925003
-4.8837619 4.3276329 67.825005
-4.7300062 4.3228478 67.75
-4.5765781 4.3180628 67.675003
-4.4251151 4.3148732 67.625008
-4.27387 4.3116822 67.575005
-4.1228442 4.3084922 67.525009
-3.9749811 4.3084922 67.525009
-3.825701 4.3068972 67.5
-3.677892 4.3068972 67.5
-3.5313909 4.3084922 67.525009
-3.3847799 4.3100872 67.550003
-3.2392581 4.3132782 67.600006
-3.0935171 4.3164678 67.650002
-2.9486461 4.3212528 67.725006
-2.8065469 4.3308239 67.875
-2.6686859 4.348371 68.150002
-2.524075 4.3563471 68.275002
-2.376308 4.3595371 68.325005
-2.228323 4.3627272 68.375
-2.0801179 4.3659182 68.425003
-1.93099 4.3675132 68.450005
-1.782402 4.3707032 68.500008
-1.633595 4.3738928 68.550003
-1.484569 4.3770828 68.600006
-6.5591178 4.6096501 69.850006
-6.3969932 4.6030512 69.750008
-6.2353039 4.5964508 69.650002
-6.0784211 4.593152 69.600006
-5.9175 4.5865531 69.500008
-5.6947999 4.530458 68.650002
-5.536397 4.523859 68.550003
-5.3784318 4.5172591 68.450005
-5.19417 4.4875622 68
-5.0322819 4.4760132 67.825005
-4.8783622 4.4710631 67.75
-4.7247701 4.466114 67.675003
-4.5731969 4.4628139 67.625008
-4.4218431 4.4595151 67.575005
-4.2707081 4.4562149 67.525009
-4.1213179 4.454565 67.5
-3.972038 4.4529161 67.475006
-3.8228669 4.4512649 67.450005
-3.675168 4.4512649 67.450005
-3.5287759 4.4529161 67.475006
-3.3822751 4.454565 67.5
-3.2356651 4.4562149 67.525009
-3.0912311 4.461165 67.600006
-2.9464681 4.466114 67.675003
-2.802412 4.472713 67.775002
-2.6598749 4.4826131 67.925003
-2.5185299 4.495811 68.125
-2.3728311 4.5024099 68.225006
-2.225879 4.50736 68.300003
-2.078598 4.51231 68.375
-1.93099 4.5172591 68.450005
-1.782402 4.5205588 68.500008
-1.634191 4.5255079 68.574997
-1.485651 4.530458 68.650002
-6.547379 4.7539368 69.724998
-6.3901138 4.7505279 69.675003
-6.2308278 4.7454138 69.600006
-6.0762382 4.74371 69.575005
-5.9175 4.738596 69.500008
-5.6947999 4.6806421 68.650002
-5.5263019 4.6653018 68.425003
-5.3528948 4.6448469 68.125
-5.1846218 4.6278019 67.875
-5.028573 4.6209841 67.775002
-4.8747621 4.61587 67.700005
-4.7212791 4.6107559 67.625008
-4.5698161 4.607347 67.575005
-4.418571 4.6039391 67.525009
-4.2675452 4.6005292 67.475006
-4.1182652 4.598825 67.450005
-3.969094 4.5971198 67.425003
-3.8200331 4.5954161 67.400002
-3.6724429 4.5954161 67.400002
-3.526161 4.5971198 67.425003
-3.3785169 4.5971198 67.425003
-3.233268 4.6005292 67.475006
-3.087801 4.6039391 67.525009
-2.943203 4.6090522 67.600006
-2.7993109 4.61587 67.700005
-2.6569381 4.6260982 67.850006
-2.5139079 4.6363239 68
-2.3693531 4.6448469 68.125
-2.2242489 4.6533689 68.25
-2.0770781 4.658484 68.325005
-1.929579 4.6635971 68.400002
-1.782402 4.6704149 68.500008
-1.634191 4.675529 68.574997
-1.486192 4.6823468 68.675003
-1.339215 4.6942792 68.850006
-6.5403371 4.901195 69.650002
-6.3855281 4.899436 69.625
-6.22859 4.8959179 69.575005
-6.0718708 4.8923988 69.525002
-5.9132419 4.8871222 69.450005
-5.6989479 4.8343439 68.700005
-5.5040908 4.7956419 68.150002
-5.335216 4.778049 67.900002
-5.1808019 4.7727718 67.825005
-5.0248628 4.7657351 67.725006
-4.871161 4.760457 67.650002
-4.7177882 4.7551789 67.575005
-4.5664339 4.7516608 67.525009
-4.4152989 4.7481432 67.475006
-4.265964 4.7463841 67.450005
-4.115212 4.7428651 67.400002
-3.966151 4.741106 67.375008
-3.8186159 4.741106 67.375008
-3.669719 4.739347 67.350006
-3.522239 4.739347 67.350006
-3.3760121 4.741106 67.375008
-3.2296751 4.7428651 67.400002
-3.085515 4.7481432 67.475006
-2.941026 4.7534199 67.550003
-2.7962091 4.758698 67.625008
-2.6530221 4.7674942 67.75
-2.510211 4.778049 67.900002
-2.366744 4.7886052 68.050003
-2.2218051 4.797401 68.175003
-2.0755579 4.8044381 68.275002
-1.928874 4.8114748 68.375
-1.781101 4.816752 68.450005
-1.634191 4.8255491 68.574997
-1.486733 4.8343439 68.700005
-1.339215 4.8449001 68.850006
-6.5356431 5.0499392 69.600006
-6.3809419 5.0481248 69.575005
-6.224113 5.044497 69.525002
-6.0675039 5.0408702 69.474998
-5.9089851 5.035428 69.400002
-5.6885791 4.9755678 68.574997
-5.4899578 4.932034 67.975006
-5.3312869 4.922965 67.850006
-5.1769838 4.9175229 67.775002
-5.0230079 4.9120822 67.700005
-4.8675609 4.9048262 67.600006
-4.716043 4.9011979 67.550003
-4.5630531 4.8957558 67.475006
-4.4120269 4.892128 67.425003
-4.2628012 4.8903151 67.400002
-4.1121588 4.8866868 67.350006
-3.963207 4.884872 67.325005
-3.8157821 4.884872 67.325005
-3.666995 4.883059 67.300003
-3.519624 4.883059 67.300003
-3.3722529 4.883059 67.300003
-3.2272789 4.8866868 67.350006
-3.0820849 4.8903151 67.400002
-2.936672 4.8939419 67.450005
-2.793108 4.9011979 67.550003
-2.650085 4.9102669 67.675003
-2.506515 4.9193368 67.800003
-2.363266 4.9302211 67.950005
-2.2185459 4.93929 68.075005
-2.073278 4.948359 68.200005
-1.9267581 4.955616 68.300003
-1.7798001 4.9628711 68.400002
-1.6329989 4.971941 68.525002
-1.486192 4.9828238 68.675003
-1.338728 4.9937081 68.824997
-1.1893131 4.9991488 68.900002
-6.5356431 5.2022009 69.600006
-6.3786492 5.1984639 69.550003
-6.2218761 5.1947269 69.500008
-6.063138 5.1891208 69.425003
-5.9025989 5.1816468 69.325005
-5.6823568 5.1199832 68.500008
-5.483901 5.0751362 67.900002
-5.3273578 5.0676618 67.800003
-5.1750741 5.0639238 67.75
-5.0192981 5.0564499 67.650002
-4.8657608 5.0508442 67.575005
-4.7125521 5.045238 67.5
-4.5596709 5.0396318 67.425003
-4.4087548 5.0358949 67.375008
-4.2596388 5.0340271 67.350006
-4.109107 5.0302901 67.300003
-3.960264 5.0284209 67.275009
-3.8115311 5.0265522 67.25
-3.6642699 5.0265522 67.25
-3.515702 5.024684 67.225006
-3.3697481 5.0265522 67.25
-3.223685 5.0284209 67.275009
-3.078655 5.0321579 67.325005
-2.9334071 5.0358949 67.375008
-2.7900071 5.0433698 67.475006
-2.6461689 5.0508442 67.575005
-2.501894 5.0583181 67.675003
-2.3589189 5.06953 67.825005
-2.215287 5.0807419 67.975006
-2.070998 5.0919542 68.125
-1.924642 5.0994282 68.225006
-1.778499 5.1087708 68.350006
-1.631808 5.118114 68.474998
-1.485651 5.1311941 68.650002
-1.3382421 5.142406 68.800003
-1.1893131 5.1498799 68.900002
-1.039192 5.1536179 68.950005
-6.5356431 5.354465 69.600006
-6.3786492 5.3506169 69.550003
-6.2196369 5.3448482 69.474998
-6.0609541 5.339077 69.400002
-5.8898282 5.3217678 69.175003
-5.6844311 5.2717628 68.525002
-5.4818811 5.221756 67.875
-5.3253942 5.2140641 67.775002
-5.1731639 5.210217 67.725006
-5.0174432 5.2025242 67.625008
-4.8621612 5.1948299 67.525009
-4.7090621 5.1890612 67.450005
-4.557981 5.185214 67.400002
-4.4071202 5.1813679 67.350006
-4.2564769 5.1775212 67.300003
-4.1060538 5.1736741 67.25
-3.9573209 5.171751 67.225006
-3.8086979 5.169827 67.200005
-3.6601839 5.1679039 67.175003
-3.513087 5.1679039 67.175003
-3.3659899 5.1679039 67.175003
-3.2200911 5.169827 67.200005
-3.0740831 5.171751 67.225006
-2.9301419 5.1775212 67.300003
-2.785872 5.18329 67.375008
-2.641274 5.1890612 67.450005
-2.497272 5.196754 67.550003
-2.3528321 5.2044468 67.650002
-2.210398 5.2179098 67.825005
-2.0656779 5.2275271 67.950005
-1.920411 5.237143 68.075005
-1.774595 5.2467589 68.200005
-1.63002 5.262146 68.400002
-1.484028 5.275609 68.574997
-1.33727 5.289072 68.750008
-1.188018 5.2948418 68.824997
-1.038062 5.2986879 68.875
-6.5356431 5.5067272 69.600006
-6.3786492 5.5027699 69.550003
-6.2218761 5.4988151 69.500008
-6.0522208 5.4829912 69.300003
-5.8664131 5.4513431 68.900002
-5.6844311 5.4216728 68.525002
-5.4818811 5.370245 67.875
-5.3253942 5.3623328 67.775002
-5.1712551 5.3564 67.700005
-5.0155892 5.3484869 67.600006
-4.8603611 5.3405752 67.5
-4.7073159 5.334641 67.425003
-4.5545998 5.3287072 67.350006
-4.4038482 5.3247509 67.300003
-4.253314 5.3207951 67.25
-4.104527 5.3188181 67.225006
-3.9543769 5.3148608 67.175003
-3.8058629 5.3128829 67.150002
-3.657459 5.310905 67.125008
-3.509165 5.3089271 67.099998
-3.362232 5.3089271 67.099998
-3.2164979 5.310905 67.125008
-3.070653 5.3128829 67.150002
-2.9268761 5.3188181 67.225006
-2.7827711 5.3247509 67.300003
-2.6373589 5.3287072 67.350006
-2.4917271 5.3326631 67.400002
-2.345876 5.3366189 67.450005
-2.1998069 5.3405752 67.5
-2.0535181 5.344532 67.550003
-1.907011 5.3484869 67.600006
-1.762236 5.358377 67.725006
-1.622871 5.3880472 68.100006
-1.481864 5.417717 68.474998
-1.336297 5.4355192 68.700005
-1.1867239 5.4394751 68.750008
-1.037308 5.4454079 68.824997
-0.88885301 5.4592552 69.000008
-6.383235 5.658989 69.600006
-6.224113 5.6528912 69.525002
-6.026021 5.6102052 69.000008
-5.8493838 5.585813 68.700005
-5.671988 5.5593872 68.375
-5.4818811 5.518734 67.875
-5.3234301 5.5085702 67.75
-5.1693449 5.5024719 67.675003
-5.0137339 5.4943409 67.575005
-4.858561 5.4862108 67.475006
-4.7055712 5.480113 67.400002
-4.5545998 5.476048 67.350006
-4.4022121 5.4699502 67.275009
-4.2517328 5.4658842 67.225006
-4.1014738 5.4618182 67.175003
-3.9529059 5.4597859 67.150002
-3.80303 5.4557199 67.099998
-3.6547351 5.4536881 67.075005
-3.5065501 5.4516549 67.050003
-3.3597269 5.4516549 67.050003
-3.212903 5.4516549 67.050003
-3.068367 5.4557199 67.099998
-2.9236109 5.4597859 67.150002
-2.778636 5.463851 67.200005
-2.6334431 5.467916 67.25
-2.48803 5.471982 67.300003
-2.3415289 5.4740152 67.325005
-2.1949179 5.476048 67.350006
-2.048198 5.4780798 67.375008
-1.902074 5.4821448 67.425003
-1.756381 5.4882431 67.5
-1.612147 5.5004401 67.650002
-1.475372 5.5431261 68.175003
-1.334838 5.5797138 68.625
-1.185429 5.5837798 68.675003
-1.0358011 5.5878448 68.724998
-0.88563198 5.5898781 68.750008
-6.3878212 5.8154259 69.650002
-6.2196369 5.8008151 69.474998
-6.006371 5.7423692 68.775002
-5.8302269 5.717319 68.474998
-5.6450281 5.6818342 68.050003
-5.4778428 5.6630478 67.825005
-5.321465 5.6546979 67.725006
-5.1674352 5.648437 67.650002
-5.011879 5.6400871 67.550003
-4.858561 5.6338248 67.475006
-4.7055712 5.627563 67.400002
-4.5529089 5.6213002 67.325005
-4.4005761 5.6150379 67.25
-4.2501531 5.6108642 67.200005
-4.0999479 5.606689 67.150002
-3.9499631 5.6025138 67.099998
-3.8016131 5.6004272 67.075005
-3.6520109 5.596252 67.025009
-3.5039351 5.5941639 67
-3.355968 5.5920768 66.975006
-3.2105081 5.5941639 67
-3.0649371 5.596252 67.025009
-2.9203451 5.6004272 67.075005
-2.7755351 5.6046019 67.125008
-2.6295271 5.606689 67.150002
-2.484333 5.6108642 67.200005
-2.3380511 5.6129508 67.225006
-2.191659 5.6150379 67.25
-2.0451579 5.617126 67.275009
-1.899253 5.6213002 67.325005
-1.753129 5.6254749 67.375008
-1.607381 5.6317372 67.450005
-1.46401 5.648437 67.650002
-1.332893 5.7214952 68.525002
-1.184135 5.727757 68.600006
-1.034294 5.7298441 68.625
-0.88434398 5.7319312 68.650002
-0.739631 5.7757659 69.175003
-6.392406 5.9720821 69.700005
-6.1905422 5.9249558 69.150002
-5.9823542 5.8692641 68.500008
-5.800426 5.837132 68.125
-5.6367331 5.8221378 67.950005
-5.4778428 5.8114271 67.825005
-5.321465 5.8028588 67.725006
-5.1655259 5.794291 67.625008
-5.011879 5.7878642 67.550003
-4.856761 5.7792959 67.450005
-4.703825 5.7728701 67.375008
-4.551219 5.7664442 67.300003
-4.4005761 5.7621589 67.25
-4.2485709 5.755733 67.175003
-4.0984221 5.7514501 67.125008
-3.9484911 5.7471652 67.075005
-3.798779 5.7428808 67.025009
-3.6506491 5.7407389 67
-3.5013199 5.736455 66.950005
-3.3534629 5.734313 66.925003
-3.206913 5.734313 66.925003
-3.0615079 5.736455 66.950005
-2.915992 5.7385969 66.975006
-2.7714 5.7428808 67.025009
-2.6256111 5.7450228 67.050003
-2.4806359 5.7493072 67.099998
-2.333704 5.7493072 67.099998
-2.1875861 5.7514501 67.125008
-2.041358 5.7535911 67.150002
-1.895727 5.7578759 67.200005
-1.750527 5.7643018 67.275009
-1.6044019 5.7685862 67.325005
-1.459141 5.777154 67.425003
-1.327544 5.8478422 68.25
-1.183272 5.8735471 68.550003
-1.03354 5.875689 68.574997
-0.88370001 5.877831 68.600006
-0.73348302 5.877831 68.600006
-6.392406 6.1245632 69.700005
-6.172637 6.058661 68.950005
-5.9605198 5.9971509 68.25
-5.7940412 5.9795771 68.050003
-5.6346588 5.9685941 67.925003
-5.4778428 5.959806 67.825005
-5.321465 5.9510188 67.725006
-5.1655259 5.9422331 67.625008
-5.0100241 5.933445 67.525009
-4.856761 5.9268551 67.450005
-4.703825 5.9202652 67.375008
-4.551219 5.9136739 67.300003
-4.3989401 5.907084 67.225006
-4.2485709 5.9026899 67.175003
-4.0984221 5.8982968 67.125008
-3.9470191 5.8917069 67.050003
-3.7973621 5.8873129 67
-3.6479239 5.8829198 66.950005
-3.5000119 5.880723 66.925003
-3.3509581 5.8763289 66.875008
-3.2045181 5.8763289 66.875008
-3.0580781 5.8763289 66.875008
-2.9127259 5.8785262 66.900002
-2.7672651 5.880723 66.925003
-2.621695 5.8829198 66.950005
-2.476939 5.8873129 67
-2.330225 5.8873129 67
-2.1843269 5.8895102 67.025009
-2.039078 5.8939042 67.075005
-1.892905 5.8961 67.099998
-1.747274 5.9004941 67.150002
-1.602019 5.907084 67.225006
-1.456436 5.9136739 67.300003
-1.311497 5.9246578 67.425003
-1.181977 6.016922 68.474998
-1.032787 6.0213161 68.525002
-0.88305598 6.0235119 68.550003
-0.73294801 6.0235119 68.550003
-6.3786492 6.263535 69.550003
-6.1659231 6.2027459 68.875
-5.95397 6.1397061 68.175003
-5.7940412 6.128448 68.050003
-5.6346588 6.1171908 67.925003
-5.4778428 6.1081848 67.825005
-5.321465 6.0991802 67.725006
-5.1655259 6.0901742 67.625008
-5.0100241 6.0811682 67.525009
-4.85496 6.0721622 67.425003
-4.7020798 6.0654082 67.350006
-4.5478368 6.0564022 67.25
-4.397305 6.051899 67.200005
-4.245409 6.045145 67.125008
-4.0953689 6.0406418 67.075005
-3.9455481 6.036139 67.025009
-3.7959449 6.0316362 66.975006
-3.6465621 6.027133 66.925003
-3.4973979 6.0226312 66.875008
-3.3484521 6.018127 66.825005
-3.2009239 6.0158758 66.800003
-3.0546479 6.0158758 66.800003
-2.9083719 6.0158758 66.800003
-2.7631299 6.018127 66.825005
-2.617779 6.0203791 66.849998
-2.473242 6.0248818 66.900002
-2.3276169 6.027133 66.925003
-2.1818831 6.0293851 66.950005
-2.0360379 6.0316362 66.975006
-1.89079 6.036139 67.025009
-1.745322 6.0406418 67.075005
-1.599636 6.045145 67.125008
-1.454272 6.051899 67.200005
-1.308579 6.0586538 67.275009
-1.1651469 6.078917 67.5
-1.031657 6.1644721 68.450005
-0.88241202 6.1689749 68.500008
-0.73241401 6.1689749 68.500008
-0.58241498 6.1689749 68.500008
-6.3580141 6.3949342 69.325005
-6.1659231 6.3534231 68.875
-5.9627042 6.2980762 68.275002
-5.7940412 6.2773199 68.050003
-5.6367331 6.268096 67.950005
-5.4778428 6.256566 67.825005
-5.321465 6.2473412 67.725006
-5.1636162 6.2358098 67.600006
-5.0081692 6.2265849 67.5
-4.8531599 6.217361 67.400002
-4.6985888 6.2081361 67.300003
-4.544456 6.1989121 67.200005
-4.394032 6.1943002 67.150002
-4.2422462 6.1873808 67.075005
-4.0923162 6.1827688 67.025009
-3.9426041 6.1781559 66.975006
-3.7931111 6.1735439 66.925003
-3.643837 6.168932 66.875008
-3.493475 6.162014 66.800003
-3.3446939 6.1574011 66.75
-3.19733 6.1550951 66.725006
-3.050076 6.1527891 66.700005
-2.9040191 6.1527891 66.700005
-2.758996 6.1550951 66.725006
-2.6148419 6.159708 66.775009
-2.4695449 6.162014 66.800003
-2.3250091 6.166625 66.849998
-2.1794381 6.168932 66.875008
-2.034518 6.1735439 66.925003
-1.888674 6.1758499 66.950005
-1.743371 6.1804619 67
-1.597253 6.1827688 67.025009
-1.452108 6.1896868 67.099998
-1.3061481 6.1943002 67.150002
-1.160832 6.2035241 67.25
-1.020353 6.2450352 67.700005
-0.881446 6.311913 68.425003
-0.731879 6.314219 68.450005
-0.58199 6.314219 68.450005
-6.3580141 6.5465951 69.325005
-6.177114 6.5159039 69.000008
-5.971437 6.456882 68.375
-5.7982979 6.430913 68.100006
-5.6388059 6.4191089 67.975006
-5.4798622 6.4073062 67.850006
-5.321465 6.3955011 67.725006
-5.1636162 6.383697 67.600006
-5.0063138 6.3718929 67.475006
-4.8477602 6.357728 67.325005
-4.6933532 6.3482838 67.225006
-4.5393839 6.338841 67.125008
-4.3891249 6.3341188 67.075005
-4.2390838 6.3293982 67.025009
-4.089263 6.324677 66.975006
-3.938189 6.3175941 66.900002
-3.788861 6.3128719 66.849998
-3.639751 6.3081498 66.800003
-3.489553 6.3010678 66.725006
-3.3409359 6.2963462 66.675003
-3.192538 6.291625 66.625008
-3.0455019 6.2892628 66.599998
-2.8996651 6.2892628 66.599998
-2.7548611 6.291625 66.625008
-2.6109259 6.2963462 66.675003
-2.466773 6.3010678 66.725006
-2.3224001 6.3057899 66.775009
-2.177809 6.3105111 66.825005
-2.032238 6.3128719 66.849998
-1.887264 6.3175941 66.900002
-1.741419 6.3199539 66.925003
-1.596061 6.324677 66.975006
-1.449944 6.3270369 67
-1.304202 6.331759 67.050003
-1.158242 6.3364801 67.099998
-1.01357 6.350646 67.25
-0.87983501 6.4498 68.300003
-0.73107702 6.456882 68.375
-0.58156502 6.4592438 68.400002
-6.3717709 6.7127481 69.474998
-6.1905422 6.6813459 69.150002
-5.9736199 6.608881 68.400002
-5.8025551 6.5847249 68.150002
-5.6429539 6.572648 68.025002
-5.4818811 6.5581551 67.875
-5.3234301 6.5460768 67.75
-5.1636162 6.5315838 67.600006
-4.9988952 6.5098438 67.375008
-4.840559 6.4953508 67.225006
-4.6863708 6.4856892 67.125008
-4.5343118 6.4784422 67.050003
-4.3825812 6.4711962 66.975006
-4.232759 6.4663639 66.925003
-4.083158 6.461534 66.875008
-3.933774 6.4567022 66.825005
-3.7831931 6.4494562 66.75
-3.6343019 6.4446249 66.700005
-3.484323 6.4373779 66.625008
-3.3359261 6.432548 66.575005
-3.187747 6.4277158 66.525002
-3.04093 6.4253011 66.5
-2.8953111 6.4253011 66.5
-2.75176 6.4301319 66.550003
-2.6079891 6.4349632 66.599998
-2.464 6.4397941 66.650002
-2.3206611 6.4470401 66.725006
-2.1761789 6.4518719 66.775009
-2.0314779 6.4567022 66.825005
-1.8858531 6.4591179 66.849998
-1.740118 6.461534 66.875008
-1.594274 6.4639492 66.900002
-1.448862 6.468781 66.950005
-1.302744 6.4711962 66.975006
-1.156948 6.476027 67.025009
-1.01131 6.483273 67.099998
-0.865987 6.4953508 67.225006
-0.73000801 6.5968032 68.275002
-0.580715 6.5992179 68.300003
-0.43131199 6.601634 68.325005
-6.3671861 6.859797 69.425003
-6.2062092 6.8499169 69.325005
-5.971437 6.7560482 68.375
-5.8068118 6.7387571 68.200005
-5.6450281 6.7239351 68.050003
-5.48592 6.7115841 67.925003
-5.3273578 6.6992331 67.800003
-5.1597972 6.674531 67.550003
-4.9877648 6.6424179 67.225006
-4.8315582 6.6300669 67.099998
-4.67939 6.6226559 67.025009
-4.5275488 6.6152458 66.950005
-4.3760381 6.6078348 66.875008
-4.2264352 6.6028938 66.825005
-4.0770521 6.5979552 66.775009
-3.9264159 6.5905442 66.700005
-3.7775249 6.5856032 66.650002
-3.6288531 6.5806632 66.599998
-3.4790931 6.5732522 66.525002
-3.330915 6.5683122 66.475006
-3.182955 6.5633712 66.425003
-3.0374999 6.5633712 66.425003
-2.892045 6.5633712 66.425003
-2.7486579 6.5683122 66.475006
-2.605052 6.5732522 66.525002
-2.462152 6.5806632 66.599998
-2.318922 6.5880728 66.675003
-2.1745501 6.5930138 66.725006
-2.029958 6.5979552 66.775009
-1.885148 6.6028938 66.825005
-1.739468 6.6053638 66.849998
-1.593678 6.6078348 66.875008
-1.44778 6.6103048 66.900002
-1.301771 6.6127748 66.925003
-1.156085 6.6177158 66.975006
-1.010556 6.6251259 67.050003
-0.86469901 6.6325369 67.125008
-0.71985 6.652298 67.325005
-0.58007699 6.7412271 68.225006
-0.43068099 6.7412271 68.225006
-6.3625998 7.0066271 69.375
-6.2062092 7.0015769 69.325005
-5.9779868 6.9132051 68.450005
-5.811069 6.8930058 68.25
-5.6491761 6.8778572 68.100006
-5.4899578 6.865232 67.975006
-5.3293228 6.8500819 67.825005
-5.138792 6.7945352 67.275009
-4.9784908 6.7768602 67.099998
-4.826159 6.7692852 67.025009
-4.6741538 6.7617111 66.950005
-4.5224781 6.7541361 66.875008
-4.37113 6.7465611 66.800003
-4.2201099 6.738987 66.725006
-4.0694199 6.7314119 66.650002
-3.9205289 6.7263622 66.599998
-3.771858 6.721313 66.550003
-3.6220429 6.713737 66.475006
-3.4738641 6.7086878 66.425003
-3.3259039 6.7036381 66.375008
-3.1793611 6.7011132 66.349998
-3.03407 6.7011132 66.349998
-2.8887801 6.7011132 66.349998
-2.7455571 6.706162 66.400002
-2.6030951 6.713737 66.475006
-2.4603031 6.721313 66.550003
-2.317183 6.7288871 66.625008
-2.1737349 6.7364621 66.700005
-2.0291979 6.7415109 66.75
-1.883737 6.7440372 66.775009
-1.738167 6.7465611 66.800003
-1.592487 6.7490859 66.825005
-1.446697 6.7516112 66.849998
-1.301285 6.7566609 66.900002
-1.155653 6.7617111 66.950005
-1.010179 6.7692852 67.025009
-0.86437702 6.7768602 67.099998
-0.71824598 6.7844348 67.175003
-0.57731402 6.857657 67.900002
-0.43004999 6.8803821 68.125
-0.280873 6.8803821 68.125
-6.355721 7.1506581 69.300003
-6.1950178 7.1403399 69.200005
-5.9845371 7.0706902 68.525002
-5.8174548 7.0500541 68.325005
