ply
format ascii 1.0
comment PCL generated
element vertex 1594
property float x
property float y
property float z
element face 0
element camera 0
property float view_px
property float view_py
property float view_pz
property float x_axisx
property float x_axisy
property float x_axisz
property float y_axisx
property float y_axisy
property float y_axisz
property float z_axisx
property float z_axisy
property float z_axisz
property float focal
property float scalex
property float scaley
property float centerx
property float centery
property int viewportx
property int viewporty
property float k1
property float k2
end_header
0.15406001 4.84479 62.975002
0.29149601 4.8370972 62.875004
0.42849499 4.8294039 62.775005
0.56550598 4.8255572 62.725002
0.70229799 4.8217111 62.675007
0.83954102 4.8217111 62.675007
0.976394 4.819787 62.650002
1.114027 4.8217111 62.675007
1.252268 4.8255572 62.725002
1.390728 4.8294039 62.775005
1.5300159 4.8351741 62.850006
1.669632 4.8409438 62.925003
1.808859 4.84479 62.975002
1.9483041 4.8486371 63.025005
2.0879691 4.8524828 63.075001
2.2278521 4.8563299 63.125004
2.367955 4.860177 63.175003
2.508276 4.8640232 63.225002
2.649863 4.869792 63.300003
2.7906771 4.8736401 63.350002
2.9305539 4.8755631 63.375004
3.06933 4.8755631 63.375004
3.208106 4.8755631 63.375004
3.345562 4.8736401 63.350002
3.482908 4.871716 63.325005
3.6215739 4.871716 63.325005
3.7602401 4.871716 63.325005
3.9004459 4.8736401 63.350002
4.0423551 4.8774862 63.400002
4.186131 4.883256 63.475002
4.333643 4.8928728 63.600002
4.4904938 4.912106 63.850002
4.6393752 4.921721 63.974998
4.7906709 4.9332609 64.125
4.965693 4.9678812 64.575005
5.2178202 5.0755858 65.975006
5.3683848 5.081356 66.050003
5.519279 5.0871258 66.125008
5.6769242 5.0986652 66.275002
5.8330312 5.1082821 66.400002
5.9874339 5.1159749 66.5
6.1422758 5.1236682 66.599998
6.370728 5.1909838 67.475006
6.5740299 5.23522 68.050003
6.893466 5.3679271 69.775002
7.056355 5.3756199 69.875
7.2145219 5.379467 69.925003
7.3755441 5.3852372 70.000008
7.5422711 5.3948531 70.125
7.7507 5.4333191 70.625
7.9249392 5.4467821 70.800003
8.0970926 5.458322 70.950005
8.3542299 5.5256381 71.825005
8.5203972 5.5314078 71.900002
8.6838751 5.535254 71.949997
8.8445005 5.537178 71.975006
-9.2932787 5.702548 72.075005
-9.1322832 5.7005701 72.050003
-8.9278011 5.6708989 71.675003
-8.6117697 5.5680442 70.375
-8.3735399 5.512661 69.675003
-8.2150688 5.5087051 69.625
-8.0568171 5.5047488 69.575005
-7.9016252 5.5027699 69.550003
-7.7409701 5.4968371 69.474998
-7.5806451 5.4909019 69.400002
-7.4179721 5.4829912 69.300003
-7.258358 5.477057 69.224998
-7.0939388 5.4671669 69.100006
-6.8873668 5.4236512 68.550003
-6.7274318 5.4157391 68.450005
-6.57514 5.4137611 68.425003
-6.3102751 5.3168392 67.200005
-6.124146 5.2832141 66.775009
-5.816782 5.140799 64.975006
-5.574069 5.0498109 63.825005
-5.389607 5.0082731 63.300003
-5.2447739 5.0023389 63.225002
-5.1002688 4.9964051 63.150002
-4.9580579 4.9924488 63.100006
-4.8160648 4.988492 63.050003
-4.676146 4.986515 63.025005
-4.5345359 4.9825592 62.975002
-4.3948908 4.9805808 62.950005
-4.253664 4.976624 62.900002
-4.112658 4.9726691 62.850006
-3.971868 4.9687128 62.800003
-3.8312991 4.964757 62.750008
-3.69242 4.962779 62.725002
-3.5536511 4.9608011 62.700005
-3.416353 4.9608011 62.700005
-3.2803631 4.962779 62.725002
-3.144264 4.964757 62.750008
-3.0092521 4.9687128 62.800003
-2.8728781 4.9706912 62.825001
-2.7363949 4.9726691 62.850006
-2.5987689 4.9726691 62.850006
-2.461143 4.9726691 62.850006
-2.3235171 4.9726691 62.850006
-2.1850209 4.9706912 62.825001
-2.0466349 4.9687128 62.800003
-1.908358 4.9667349 62.775005
-1.770191 4.964757 62.750008
-1.632133 4.962779 62.725002
-1.494781 4.962779 62.725002
-1.357429 4.962779 62.725002
-1.220076 4.962779 62.725002
-1.082724 4.962779 62.725002
-0.94537097 4.962779 62.725002
-0.807697 4.9608011 62.700005
-0.67039901 4.9608011 62.700005
-0.53288901 4.9588232 62.675007
-0.39564601 4.9588232 62.675007
-0.258506 4.9608011 62.700005
-0.121256 4.962779 62.725002
0.016101999 4.964757 62.750008
0.15357099 4.9667349 62.775005
0.29091701 4.964757 62.750008
0.42798299 4.9608011 62.700005
0.56483001 4.9568448 62.650002
0.701738 4.9548669 62.625004
0.83853602 4.952889 62.600006
0.97561502 4.952889 62.600006
1.113138 4.9548669 62.625004
1.2512701 4.9588232 62.675007
1.389621 4.962779 62.725002
1.52819 4.9667349 62.775005
1.667642 4.9726691 62.850006
1.806705 4.976624 62.900002
1.945986 4.9805808 62.950005
2.086314 4.986515 63.025005
2.2252049 4.988492 63.050003
2.365144 4.9924488 63.100006
2.5062931 4.998383 63.175003
2.646724 5.0023389 63.225002
2.786272 5.0043168 63.250004
2.92593 5.0062952 63.275002
3.0656979 5.0082731 63.300003
3.2030439 5.0062952 63.275002
3.3416009 5.0062952 63.275002
3.4787829 5.0043168 63.250004
3.617285 5.0043168 63.250004
3.7572711 5.0062952 63.275002
3.897367 5.0082731 63.300003
4.0391669 5.012228 63.350002
4.1828341 5.0181632 63.425003
4.3268299 5.024097 63.500004
4.476429 5.035964 63.650002
4.6266851 5.047832 63.800003
4.7757301 5.057723 63.925003
4.975306 5.11904 64.700005
5.2178202 5.2199178 65.975006
5.3704171 5.2278299 66.075005
5.5234509 5.2357421 66.175003
5.6897731 5.2555208 66.425003
5.8484039 5.2673888 66.575005
6.0257001 5.2950821 66.925003
6.2345028 5.3484869 67.600006
6.4084949 5.370245 67.875
6.6440692 5.441453 68.775002
6.9058161 5.5304632 69.900009
7.0689778 5.5383739 70.000008
7.2299991 5.5443091 70.075005
7.3966169 5.5541978 70.200005
7.579915 5.5759559 70.475006
7.7589302 5.5937581 70.700005
7.9305372 5.6056261 70.850006
8.0970926 5.6135378 70.950005
8.2902584 5.6392522 71.275002
8.5085478 5.6807899 71.800003
8.6718063 5.6847458 71.849998
8.8322124 5.6867242 71.875008
-9.1322832 5.858192 72.050003
-8.9745111 5.858192 72.050003
-8.6484814 5.7463942 70.675003
-8.4005814 5.6833811 69.900009
-8.2298183 5.671185 69.750008
-8.0712919 5.66712 69.700005
-7.9101448 5.6610222 69.625
-7.7493272 5.654923 69.550003
-7.5861068 5.6467929 69.450005
-7.4233241 5.6386619 69.350006
-7.2609792 5.6305308 69.250008
-7.0965061 5.620368 69.125
-6.8999271 5.5837798 68.675003
-6.729888 5.5675182 68.474998
-6.57514 5.5634532 68.425003
-6.413568 5.5532889 68.300003
-6.1470742 5.4496231 67.025009
-5.8772111 5.3378248 65.650002
-5.6024532 5.2158642 64.150009
-5.4087648 5.1650472 63.525002
-5.2551441 5.1508179 63.350002
-5.1103649 5.1447201 63.275002
-4.9639511 5.13659 63.175003
-4.821794 5.132524 63.125004
-4.6780009 5.1264262 63.050003
-4.5363369 5.1223612 63.000004
-4.3948908 5.1182952 62.950005
-4.2519741 5.1121969 62.875004
-4.111022 5.1081309 62.825001
-3.9687059 5.1020341 62.750008
-3.8282471 5.0979691 62.700005
-3.688005 5.0939031 62.650002
-3.5494001 5.0918698 62.625004
-3.412266 5.0918698 62.625004
-3.2764411 5.0939031 62.650002
-3.141758 5.0979691 62.700005
-3.006856 5.1020341 62.750008
-2.8705921 5.1040659 62.775005
-2.7342179 5.1060991 62.800003
-2.5977349 5.1081309 62.825001
-2.4601641 5.1081309 62.825001
-2.322592 5.1081309 62.825001
-2.1841519 5.1060991 62.800003
-2.04582 5.1040659 62.775005
-1.907598 5.1020341 62.750008
-1.7687809 5.0979691 62.700005
-1.631483 5.0979691 62.700005
-1.494185 5.0979691 62.700005
-1.3568881 5.0979691 62.700005
-1.2195899 5.0979691 62.700005
-1.082292 5.0979691 62.700005
-0.94461799 5.0959358 62.675007
-0.80737501 5.0959358 62.675007
-0.66959703 5.0918698 62.625004
-0.532251 5.089838 62.600006
-0.395172 5.089838 62.600006
-0.25809401 5.089838 62.600006
-0.121063 5.0918698 62.625004
0.016077001 5.0939031 62.650002
0.153265 5.0939031 62.650002
0.29045299 5.0939031 62.650002
0.42747101 5.0918698 62.625004
0.56437898 5.089838 62.600006
0.701177 5.0878048 62.575001
0.83820099 5.0878048 62.575001
0.97522497 5.0878048 62.575001
1.112249 5.0878048 62.575001
1.250272 5.0918698 62.625004
1.388513 5.0959358 62.675007
1.526973 5.1000009 62.725002
1.666315 5.1060991 62.800003
1.805268 5.1101651 62.850006
1.94444 5.1142302 62.900002
2.0838311 5.1182952 62.950005
2.2234409 5.1223612 63.000004
2.36327 5.1264262 63.050003
2.5033171 5.1304908 63.100006
2.643584 5.1345558 63.150002
2.782969 5.13659 63.175003
2.922462 5.1386218 63.200005
3.0608549 5.1386218 63.200005
3.1979821 5.13659 63.175003
3.3363199 5.13659 63.175003
3.474658 5.13659 63.175003
3.6144249 5.1386218 63.200005
3.754302 5.140655 63.225002
3.895828 5.1447201 63.275002
4.0375729 5.1487861 63.325005
4.1811848 5.1548829 63.400002
4.3251262 5.1609812 63.475002
4.4711542 5.1691132 63.575005
4.61762 5.1772432 63.675003
4.7663908 5.187407 63.800003
4.9868398 5.272779 64.850006
5.2158432 5.3622169 65.949997
5.372448 5.374413 66.099998
5.5547519 5.4110022 66.550003
5.7240362 5.4333611 66.825005
5.9120941 5.471982 67.300003
6.0797219 5.4902759 67.525009
6.2414188 5.5024719 67.675003
6.4840269 5.5837798 68.675003
6.755167 5.6854138 69.925003
6.9255748 5.6996422 70.100006
7.0866499 5.70574 70.175003
7.248055 5.7118392 70.250008
7.4176898 5.7240348 70.400009
7.5906711 5.7382641 70.575005
7.7616739 5.7504601 70.725006
7.9305372 5.760623 70.850006
8.0970926 5.768754 70.950005
8.2699032 5.7809501 71.100006
8.4848461 5.8216028 71.599998
8.6537018 5.8297338 71.699997
-9.1354513 6.0179019 72.075005
-8.9776258 6.0179019 72.075005
-8.7677917 5.9824171 71.650002
-8.4156027 5.8467369 70.025002
-8.2416172 5.8321261 69.850006
-8.0828714 5.82795 69.800003
-7.9215059 5.8216891 69.724998
-7.7576842 5.8133392 69.625
-7.5942979 5.8049889 69.525002
-7.4286761 5.7945518 69.400002
-7.2635999 5.7841158 69.275002
-7.099072 5.7736788 69.150002
-6.925045 5.7548919 68.925003
-6.7421741 5.727757 68.600006
-6.5775418 5.7152319 68.450005
-6.415915 5.7047949 68.325005
-6.206687 5.6505241 67.675003
-5.9644961 5.5628538 66.625008
-5.7203531 5.4689221 65.5
-5.4300499 5.324893 63.775002
-5.26966 5.304019 63.525002
-5.120461 5.293582 63.400002
-4.973773 5.285233 63.300003
-4.8275232 5.2768841 63.200005
-4.6817112 5.2685342 63.100006
-4.538136 5.2622719 63.025005
-4.3948908 5.2560101 62.950005
-4.2519741 5.2497482 62.875004
-4.109385 5.2434859 62.800003
-3.9671249 5.2372241 62.725002
-3.8251929 5.2309608 62.650002
-3.686533 5.2288742 62.625004
-3.5479829 5.2267871 62.600006
-3.4109039 5.2267871 62.600006
-3.2751329 5.2288742 62.625004
-3.1392519 5.2309608 62.650002
-3.0044601 5.235137 62.700005
-2.8694489 5.2393112 62.750008
-2.7342179 5.2434859 62.800003
-2.5967021 5.2434859 62.800003
-2.4601641 5.245573 62.825001
-2.3216679 5.2434859 62.800003
-2.1832819 5.2413979 62.775005
-2.045006 5.2393112 62.750008
-1.9068381 5.2372241 62.725002
-1.7687809 5.235137 62.700005
-1.630832 5.2330489 62.675007
-1.49359 5.2330489 62.675007
-1.356347 5.2330489 62.675007
-1.2191041 5.2330489 62.675007
-1.081429 5.2309608 62.650002
-0.94386399 5.2288742 62.625004
-0.806409 5.2267871 62.600006
-0.66879499 5.2226119 62.550003
-0.53161299 5.2205248 62.525005
-0.394541 5.2184372 62.5
-0.25768101 5.2184372 62.5
-0.12087 5.2205248 62.525005
0.016045 5.2205248 62.525005
0.15301999 5.2226119 62.550003
0.29010499 5.224699 62.575001
0.427129 5.224699 62.575001
0.56392801 5.2226119 62.550003
0.70089698 5.2226119 62.550003
0.83753198 5.2205248 62.525005
0.97483599 5.2226119 62.550003
1.111805 5.2226119 62.550003
1.249773 5.2267871 62.600006
1.387405 5.2288742 62.625004
1.525756 5.2330489 62.675007
1.664989 5.2393112 62.750008
1.8038321 5.2434859 62.800003
1.9428951 5.2476611 62.850006
2.082176 5.2518349 62.900002
2.2216761 5.2560101 62.950005
2.3613961 5.2601848 63.000004
2.5003419 5.2622719 63.025005
2.640444 5.2664471 63.075001
2.778563 5.2664471 63.075001
2.916682 5.2664471 63.075001
3.054801 5.2664471 63.075001
3.19292 5.2664471 63.075001
3.331039 5.2664471 63.075001
3.4705329 5.2685342 63.100006
3.6115651 5.2727089 63.150002
3.7528181 5.2768841 63.200005
3.894289 5.2810588 63.250004
4.0375729 5.2873211 63.325005
4.1795359 5.2914948 63.375004
4.323422 5.2977571 63.450005
4.467638 5.304019 63.525002
4.6121812 5.3102822 63.600002
4.7626562 5.3228059 63.750004
5.0195222 5.4501362 65.275002
5.2178202 5.5085821 65.975006
5.4029279 5.5503302 66.475006
5.5923119 5.5941639 67
5.7668638 5.6213002 67.325005
5.931859 5.638 67.525009
6.0864749 5.6442618 67.600006
6.3290339 5.7298441 68.625
6.5453982 5.788291 69.325005
6.7793169 5.859262 70.175003
6.9379239 5.8634362 70.224998
7.0992732 5.869698 70.300003
7.260952 5.8759599 70.375
7.4255919 5.8843098 70.475006
7.593359 5.8947468 70.600006
7.7616739 5.9051838 70.725006
7.9333339 5.917707 70.875
8.099946 5.9260569 70.975006
8.2699032 5.9364939 71.100006
8.4611464 5.9615431 71.400002
-8.9807396 6.177721 72.099998
-8.8228579 6.177721 72.099998
-8.4666796 6.0363441 70.450005
-8.2504663 5.9913611 69.925003
-8.0915565 5.9870758 69.875
-7.930027 5.9806499 69.800003
-7.7660398 5.9720821 69.700005
-7.599761 5.9613719 69.575005
-7.4313521 5.9485202 69.425003
-7.266221 5.937809 69.300003
-7.1016388 5.9270992 69.175003
-6.937603 5.916389 69.050003
-6.7692008 5.9013939 68.875
-6.5895538 5.875689 68.574997
-6.4206109 5.8585529 68.375
-6.2571301 5.8456998 68.225006
-6.0249238 5.7664442 67.300003
-5.801136 5.6914711 66.425003
-5.5769238 5.612215 65.5
-5.277956 5.45156 63.625
-5.1305561 5.4429922 63.525002
-4.9816298 5.432281 63.400002
-4.8313422 5.4194288 63.250004
-4.6835651 5.4087191 63.125004
-4.538136 5.4001498 63.025005
-4.3948908 5.393724 62.950005
-4.2519741 5.3872981 62.875004
-4.109385 5.3808718 62.800003
-3.9671249 5.374445 62.725002
-3.8251929 5.3680191 62.650002
-3.6850619 5.3637362 62.600006
-3.546566 5.3615928 62.575001
-3.4095421 5.3615928 62.575001
-3.2738259 5.3637362 62.600006
-3.1392519 5.3680191 62.650002
-3.0044601 5.372304 62.700005
-2.8694489 5.3765879 62.750008
-2.7342179 5.3808718 62.800003
-2.5967021 5.3808718 62.800003
-2.4601641 5.3830142 62.825001
-2.3216679 5.3808718 62.800003
-2.1832819 5.3787298 62.775005
-2.045006 5.3765879 62.750008
-1.906078 5.372304 62.700005
-1.768075 5.370162 62.675007
-1.630182 5.3680191 62.650002
-1.492398 5.3658772 62.625004
-1.355265 5.3658772 62.625004
-1.2181309 5.3658772 62.625004
-1.080566 5.3637362 62.600006
-0.942734 5.3594508 62.550003
-0.80511999 5.355166 62.5
-0.66772598 5.350883 62.450005
-0.53076297 5.3487411 62.425007
-0.39390999 5.3465991 62.400002
-0.257269 5.3465991 62.400002
-0.120677 5.3487411 62.425007
0.016024999 5.350883 62.450005
0.15283699 5.353025 62.475002
0.289758 5.355166 62.5
0.42661801 5.355166 62.5
0.563703 5.3573089 62.525005
0.70061702 5.3573089 62.525005
0.83753198 5.3573089 62.525005
0.97483599 5.3594508 62.550003
1.111805 5.3594508 62.550003
1.2492729 5.3615928 62.575001
1.387405 5.3658772 62.625004
1.525147 5.3680191 62.650002
1.663662 5.372304 62.700005
1.8023961 5.3765879 62.750008
1.941349 5.3808718 62.800003
2.0805211 5.3851562 62.850006
2.2199111 5.3894401 62.900002
2.3595209 5.393724 62.950005
2.498358 5.3958659 62.975002
2.6362579 5.3958659 62.975002
2.775259 5.3980088 63.000004
2.9120581 5.3958659 62.975002
3.049958 5.3958659 62.975002
3.1865931 5.393724 62.950005
3.325758 5.3958659 62.975002
3.4650331 5.3980088 63.000004
3.607276 5.4044342 63.075001
3.7498491 5.410861 63.150002
3.89275 5.4172859 63.225002
4.0359788 5.4237132 63.300003
4.1795359 5.4301391 63.375004
4.323422 5.4365649 63.450005
4.467638 5.4429922 63.525002
4.6121812 5.4494181 63.600002
4.7701259 5.470839 63.850002
5.0560479 5.633636 65.75
5.2217741 5.657198 66.025002
5.4476299 5.7428808 67.025009
5.6194391 5.7685862 67.325005
5.7797132 5.7814379 67.475006
5.931859 5.7857232 67.525009
6.0864749 5.7921491 67.600006
6.3405628 5.8906841 68.750008
6.630372 6.017066 70.224998
6.7913928 6.0234909 70.300003
6.947803 6.0256338 70.325005
7.1043229 6.0277758 70.350006
7.2661099 6.0342021 70.425003
7.428226 6.040628 70.500008
7.593359 6.0491958 70.600006
7.7616739 6.059907 70.725006
7.9305372 6.0706172 70.850006
8.099946 6.0813279 70.975006
8.27281 6.0941801 71.125
-8.9869671 6.3398461 72.150002
-8.8259172 6.3376489 72.125008
-8.5297737 6.236598 70.975006
-8.2622652 6.153121 70.025002
-8.1002426 6.1465311 69.950005
-7.9385481 6.1399398 69.875
-7.7743969 6.1311541 69.775002
-7.6052222 6.1179729 69.625
-7.4393802 6.1069889 69.500008
-7.274085 6.096005 69.375
-7.1093392 6.085022 69.250008
-6.9476509 6.0762348 69.150002
-6.7864008 6.0674472 69.050003
-6.618382 6.0520701 68.875
-6.4346972 6.0213161 68.525002
-6.264008 6.001545 68.300003
-6.1032572 5.990561 68.175003
-5.8731871 5.9092808 67.25
-5.6578112 5.838985 66.450005
-5.429347 5.7511139 65.449997
-5.1386328 5.5907512 63.625
-4.9894881 5.5797672 63.500004
-4.8389802 5.566586 63.350002
-4.68542 5.5490122 63.150002
-4.539937 5.540226 63.050003
-4.3948908 5.5314379 62.950005
-4.253664 5.5270448 62.900002
-4.111022 5.5204539 62.825001
-3.9687059 5.513865 62.750008
-3.82672 5.5072742 62.675007
-3.686533 5.5028811 62.625004
-3.5479829 5.5006838 62.600006
-3.4095421 5.498487 62.575001
-3.2738259 5.5006838 62.600006
-3.1392519 5.5050769 62.650002
-3.0044601 5.5094709 62.700005
-2.8694489 5.513865 62.750008
-2.7342179 5.5182581 62.800003
-2.5977349 5.5204539 62.825001
-2.4601641 5.5204539 62.825001
-2.322592 5.5204539 62.825001
-2.1841519 5.5182581 62.800003
-2.045006 5.513865 62.750008
-1.906078 5.5094709 62.700005
-1.768075 5.5072742 62.675007
-1.629531 5.5028811 62.625004
-1.491802 5.5006838 62.600006
-1.354182 5.498487 62.575001
-1.2166719 5.4962902 62.550003
-1.07884 5.4918971 62.5
-0.94122601 5.487504 62.450005
-0.80383199 5.483109 62.400002
-0.66665697 5.4787159 62.350006
-0.52991301 5.4765201 62.325001
-0.393278 5.4743228 62.300003
-0.25696 5.4765201 62.325001
-0.120483 5.4765201 62.325001
0.016006 5.4809132 62.375004
0.15265299 5.483109 62.400002
0.28941 5.4853072 62.425007
0.426447 5.4896998 62.475002
0.56347698 5.4918971 62.5
0.70033699 5.4918971 62.5
0.83753198 5.4940929 62.525005
0.97483599 5.4962902 62.550003
1.112249 5.498487 62.575001
1.249773 5.5006838 62.600006
1.387405 5.5028811 62.625004
1.525147 5.5050769 62.650002
1.662999 5.5072742 62.675007
1.8016779 5.5116682 62.725002
1.940576 5.5160608 62.775005
2.0796931 5.5204539 62.825001
2.218147 5.5226521 62.850006
2.35671 5.524848 62.875004
2.495383 5.5270448 62.900002
2.6331179 5.5270448 62.900002
2.770854 5.5270448 62.900002
2.907434 5.524848 62.875004
3.045115 5.524848 62.875004
3.18153 5.5226521 62.850006
3.320477 5.524848 62.875004
3.459532 5.5270448 62.900002
3.6029871 5.5358319 63.000004
3.7468801 5.5446191 63.100006
3.8912101 5.5534058 63.200005
4.0359788 5.5621929 63.300003
4.1795359 5.5687828 63.375004
4.3251262 5.57757 63.475002
4.4693961 5.5841608 63.550003
4.6139941 5.5907512 63.625
4.7906709 5.634686 64.125
5.0618162 5.7840662 65.825005
5.2316599 5.812624 66.150002
5.4659181 5.9092808 67.25
5.6277862 5.9246578 67.425003
5.7818542 5.9312491 67.5
5.9362512 5.937839 67.575005
6.0909772 5.9444289 67.650002
6.3520908 6.0520701 68.875
6.6398139 6.179482 70.325005
6.7938089 6.179482 70.325005
6.950274 6.1816788 70.350006
7.1093721 6.1860728 70.400009
7.2661099 6.1882691 70.425003
7.428226 6.19486 70.500008
7.593359 6.2036471 70.600006
7.7589302 6.2124329 70.700005
7.9277382 6.2234168 70.825005
8.0970926 6.2344012 70.950005
8.2699032 6.247581 71.100006
-8.9838533 6.4954362 72.125008
-8.8259172 6.4954362 72.125008
-8.5327787 6.3941202 71
-8.2681646 6.3108158 70.075005
-8.1060324 6.3040619 70.000008
-7.9442291 6.297307 69.925003
-7.7799678 6.2883019 69.825005
-7.6161442 6.2792959 69.724998
-7.4500842 6.2680392 69.600006
-7.2845712 6.2567811 69.474998
-7.1196051 6.2455239 69.350006
-6.9576979 6.2365179 69.250008
-6.798686 6.229764 69.175003
-6.6448069 6.2275119 69.150002
-6.476953 6.2117519 68.974998
-6.2869358 6.1734781 68.550003
-6.1144471 6.1509628 68.300003
-5.9583368 6.1442089 68.225006
-5.7195401 6.0496469 67.175003
-5.5102272 5.9821038 66.425003
-5.2900658 5.8987999 65.5
-5.0032392 5.7344451 63.675003
-4.8504381 5.7186852 63.500004
-4.6872749 5.6894159 63.175003
-4.539937 5.6781578 63.050003
-4.396636 5.6714039 62.975002
-4.2553549 5.6669021 62.925003
-4.112658 5.6601472 62.850006
-3.971868 5.6556439 62.800003
-3.8297729 5.64889 62.725002
-3.689477 5.6443868 62.675007
-3.5494001 5.639884 62.625004
-3.412266 5.639884 62.625004
-3.2764411 5.6421351 62.650002
-3.141758 5.6466379 62.700005
-3.006856 5.6511412 62.750008
-2.8717351 5.6556439 62.800003
-2.735307 5.6578951 62.825001
-2.5987689 5.6601472 62.850006
-2.461143 5.6601472 62.850006
-2.3235171 5.6601472 62.850006
-2.1841519 5.6556439 62.800003
-2.04582 5.6533918 62.775005
-1.906078 5.6466379 62.700005
-1.76737 5.6421351 62.650002
-1.629531 5.639884 62.625004
-1.491206 5.6353812 62.575001
-1.3530999 5.630878 62.525005
-1.2152129 5.6263752 62.475002
-1.077545 5.6218719 62.425007
-0.93971902 5.615118 62.350006
-0.802544 5.6106148 62.300003
-0.66558701 5.606112 62.25
-0.52906299 5.6038609 62.225002
-0.39280501 5.6038609 62.225002
-0.25665101 5.606112 62.25
-0.120387 5.6083641 62.275005
0.015986999 5.6106148 62.300003
0.152531 5.615118 62.350006
0.289294 5.6196198 62.400002
0.42610601 5.6218719 62.425007
0.56325197 5.6263752 62.475002
0.70033699 5.6286259 62.5
0.83753198 5.630878 62.525005
0.97483599 5.6331301 62.550003
1.112249 5.6353812 62.575001
1.249773 5.6376328 62.600006
1.387405 5.639884 62.625004
1.525147 5.6421351 62.650002
1.662999 5.6443868 62.675007
1.8009599 5.6466379 62.700005
1.939803 5.6511412 62.750008
2.078038 5.6533918 62.775005
2.216382 5.6556439 62.800003
2.354836 5.6578951 62.825001
2.4933989 5.6601472 62.850006
2.6310251 5.6601472 62.850006
2.76755 5.6578951 62.825001
2.903965 5.6556439 62.800003
3.040272 5.6533918 62.775005
3.1777339 5.6533918 62.775005
3.315196 5.6533918 62.775005
3.4554069 5.6578951 62.825001
3.5958381 5.6623979 62.875004
3.740942 5.673656 63.000004
3.8896711 5.6894159 63.175003
4.0359788 5.7006731 63.300003
4.1811848 5.7096791 63.400002
4.3268299 5.7186852 63.500004
4.4729118 5.7276912 63.600002
4.630311 5.750205 63.850002
4.801877 5.7884789 64.275002
5.067584 5.934824 65.900002
5.2870221 6.0203791 66.849998
5.4740462 6.0654082 67.350006
5.6298718 6.0744138 67.450005
5.7861371 6.0834188 67.550003
5.9406438 6.0901742 67.625008
6.1810131 6.1824832 68.650002
6.3497858 6.2004948 68.850006
6.6398139 6.3333311 70.325005
6.7962241 6.3355818 70.350006
6.950274 6.3355818 70.350006
7.1093721 6.340085 70.400009
7.2661099 6.3423371 70.425003
7.4255919 6.3468399 70.475006
7.5879812 6.3535938 70.550003
7.7534442 6.3625998 70.650009
7.9249392 6.3761082 70.800003
-8.8259172 6.6532221 72.125008
-8.550806 6.563283 71.150002
-8.2740641 6.46873 70.125
-8.1118221 6.461812 70.050003
-7.9499092 6.4548931 69.974998
-7.7883239 6.4479752 69.900009
-7.6243372 6.4387498 69.800003
-7.4607878 6.4295259 69.700005
-7.297678 6.420301 69.600006
-7.135004 6.411077 69.500008
-6.9777918 6.4064651 69.450005
-6.8207989 6.4018521 69.400002
-6.666429 6.3995461 69.375
-6.509819 6.3949342 69.325005
-6.3534279 6.3903208 69.275002
-6.1883039 6.3764849 69.125
-5.969254 6.3049941 68.350006
-5.8131981 6.2980762 68.275002
-5.568295 6.1919942 67.125008
-5.3688111 6.1320329 66.475006
-5.1486011 6.0444002 65.525002
-4.8752642 5.8875818 63.825005
-4.713243 5.8599091 63.525002
-4.5417371 5.818398 63.075001
-4.3983822 5.81148 63.000004
-4.2570462 5.8068681 62.950005
-4.1175652 5.8045621 62.925003
-3.9750309 5.7976432 62.850006
-3.834352 5.7930312 62.800003
-3.693892 5.7884188 62.750008
-3.5536511 5.7838058 62.700005
-3.416353 5.7838058 62.700005
-3.2790551 5.7838058 62.700005
-3.144264 5.7884188 62.750008
-3.0092521 5.7930312 62.800003
-2.8728781 5.7953372 62.825001
-2.737484 5.7999492 62.875004
-2.599803 5.7999492 62.875004
-2.462122 5.7999492 62.875004
-2.3235171 5.7976432 62.850006
-2.1850209 5.7953372 62.825001
-2.04582 5.7907252 62.775005
-1.9068381 5.7861118 62.725002
-1.76737 5.7791939 62.650002
-1.628881 5.774581 62.600006
-1.490611 5.769969 62.550003
-1.352018 5.763051 62.475002
-1.214241 5.7584391 62.425007
-1.076251 5.7515202 62.350006
-0.93858898 5.7446022 62.275005
-0.80157799 5.7399888 62.225002
-0.66505301 5.7376828 62.200005
-0.52863801 5.7353768 62.175007
-0.392647 5.7376828 62.200005
-0.25644401 5.7376828 62.200005
-0.120338 5.7422948 62.25
0.015981 5.7446022 62.275005
0.15246999 5.7492142 62.325001
0.28917801 5.7538261 62.375004
0.42610601 5.7584391 62.425007
0.56325197 5.763051 62.475002
0.70033699 5.765357 62.5
0.83786702 5.769969 62.550003
0.97522497 5.772275 62.575001
1.112694 5.774581 62.600006
1.250272 5.7768869 62.625004
1.387405 5.7768869 62.625004
1.525147 5.7791939 62.650002
1.662999 5.7814999 62.675007
1.8002419 5.7814999 62.675007
1.9390301 5.7861118 62.725002
2.0772099 5.7884188 62.750008
2.2155001 5.7907252 62.775005
2.352962 5.7907252 62.775005
2.4904239 5.7907252 62.775005
2.6278861 5.7907252 62.775005
2.764246 5.7884188 62.750008
2.901654 5.7884188 62.750008
3.0378499 5.7861118 62.725002
3.1752019 5.7861118 62.725002
3.3125551 5.7861118 62.725002
3.451283 5.7884188 62.750008
3.5915489 5.7930312 62.800003
3.7335191 5.7999492 62.875004
3.8819749 5.816092 63.050003
4.0343852 5.8368468 63.275002
4.1828341 5.8506842 63.425003
4.3319411 5.864521 63.575005
4.4834609 5.8806639 63.750004
4.6502528 5.915256 64.125
4.8074808 5.9360108 64.350006
5.0695062 6.0812979 65.925003
5.314703 6.1989121 67.200005
5.4801412 6.219667 67.425003
5.6361332 6.2288918 67.525009
5.792562 6.2381158 67.625008
5.9648008 6.263484 67.900002
6.194519 6.3465042 68.800003
6.3520908 6.3534231 68.875
6.6374531 6.4848728 70.300003
6.7938089 6.4871802 70.325005
6.947803 6.4871802 70.325005
7.1043229 6.4894862 70.350006
7.260952 6.4917908 70.375
7.4203238 6.4964042 70.425003
7.5826039 6.5033231 70.500008
7.7479558 6.512547 70.600006
7.9221411 6.5286899 70.775002
-8.8259172 6.811008 72.125008
-8.655962 6.8015642 72.025002
-8.3891048 6.7142138 71.100006
-8.1176128 6.619781 70.100006
-7.9555898 6.6126981 70.025002
-7.7938948 6.6056161 69.950005
-7.6352611 6.600894 69.900009
-7.4741678 6.593812 69.825005
-7.313405 6.586729 69.750008
-7.1529698 6.5796471 69.675003
-6.9953752 6.574924 69.625
-6.8379989 6.5702028 69.575005
-6.6808419 6.5654812 69.525002
-6.5215559 6.5583992 69.450005
-6.364892 6.5536771 69.400002
-6.2062092 6.5465951 69.325005
-6.0325708 6.5229859 69.075005
-5.8259702 6.4616051 68.425003
-5.6699138 6.4545221 68.350006
-5.4192891 6.3364801 67.099998
-5.2252111 6.27982 66.5
-5.0203938 6.206635 65.725006
-4.7596159 6.0579019 64.150009
-4.5993409 6.0319319 63.875
-4.4001269 5.951664 63.025005
-4.260427 5.9493041 63.000004
-4.1208372 5.9469419 62.975002
-3.979774 5.9422212 62.925003
-3.8389311 5.937499 62.875004
-3.698307 5.9327769 62.825001
-3.5579009 5.9280558 62.775005
-3.42044 5.9280558 62.775005
-3.2829781 5.9280558 62.775005
-3.148021 5.9327769 62.825001
-3.0116479 5.9351392 62.850006
-2.875165 5.937499 62.875004
-2.7385719 5.9398599 62.900002
-2.600837 5.9398599 62.900002
-2.462122 5.937499 62.875004
-2.3235171 5.9351392 62.850006
-2.1850209 5.9327769 62.825001
-2.04582 5.9280558 62.775005
-1.906078 5.9209728 62.700005
-1.76737 5.9162521 62.650002
-1.62823 5.9091692 62.575001
-1.490015 5.904448 62.525005
-1.351477 5.8973651 62.450005
-1.213268 5.8902831 62.375004
-1.075819 5.885561 62.325001
-0.93821198 5.8784781 62.25
-0.801256 5.8737569 62.200005
-0.66478598 5.8713961 62.175007
-0.52863801 5.8713961 62.175007
-0.392647 5.8737569 62.200005
-0.256547 5.8761182 62.225002
-0.120338 5.8784781 62.25
0.015986999 5.8832002 62.300003
0.15246999 5.885561 62.325001
0.28917801 5.8902831 62.375004
0.42610601 5.8950038 62.425007
0.56325197 5.8997259 62.475002
0.70061702 5.904448 62.525005
0.83786702 5.9068079 62.550003
0.97522497 5.9091692 62.575001
1.112694 5.91153 62.600006
1.250272 5.9138908 62.625004
1.387405 5.9138908 62.625004
1.525147 5.9162521 62.650002
1.662335 5.9162521 62.650002
1.8002419 5.918612 62.675007
1.9382581 5.9209728 62.700005
2.0755551 5.9209728 62.700005
2.2137351 5.9233341 62.725002
2.351088 5.9233341 62.725002
2.48844 5.9233341 62.725002
2.6247461 5.9209728 62.700005
2.762044 5.9209728 62.700005
2.898185 5.918612 62.675007
3.035428 5.918612 62.675007
3.172672 5.918612 62.675007
3.311235 5.9209728 62.700005
3.4499071 5.9233341 62.725002
3.58869 5.9256949 62.750008
3.7305501 5.9327769 62.825001
3.8712001 5.937499 62.875004
4.0232272 5.9587469 63.100006
4.1894288 5.9988809 63.525002
4.3455682 6.0224891 63.775002
4.50456 6.0484581 64.050003
4.6611309 6.069706 64.275002
4.8205552 6.0933142 64.525002
5.0695062 6.2255211 65.925003
5.3226109 6.3553672 67.300003
5.4842048 6.3718929 67.475006
5.648653 6.390779 67.675003
5.8182588 6.4143882 67.925003
6.0021362 6.4521608 68.325005
6.1877661 6.489934 68.724998
6.3497858 6.501739 68.850006
6.6327319 6.633945 70.250008
6.7889781 6.6363058 70.275002
6.9428639 6.6363058 70.275002
7.0992732 6.6386671 70.300003
7.2557931 6.6410279 70.325005
7.4150548 6.64575 70.375
7.5745368 6.6504712 70.425003
-8.8259172 6.9687948 72.125008
-8.661972 6.963963 72.075005
-8.4628496 6.9301462 71.725006
-8.1870918 6.831109 70.700005
-7.9669499 6.7755518 70.125
-7.8022518 6.7658901 70.025002
-7.6434522 6.7610579 69.974998
-7.4848728 6.756228 69.925003
-7.3265109 6.7513971 69.875
-7.1683688 6.7465658 69.825005
-7.0104461 6.741735 69.775002
-6.8527422 6.7369041 69.724998
-6.692853 6.7296562 69.650002
-6.5332952 6.7224112 69.575005
-6.3763571 6.7175798 69.525002
-6.2173991 6.7103329 69.450005
-6.0544038 6.6982551 69.325005
-5.8578992 6.6475291 68.800003
-5.6802831 6.616127 68.474998
-5.5263019 6.6112971 68.425003
-5.272356 6.483273 67.099998
-5.0872312 6.4349632 66.599998
-4.9098601 6.393899 66.175003
-4.6641459 6.2586288 64.775002
-4.473434 6.1909952 64.075005
-4.3162189 6.1668401 63.825005
-4.133924 6.1040359 63.175003
-3.98768 6.091958 63.050003
-3.845037 6.084712 62.975002
-3.7027221 6.0774651 62.900002
-3.5635691 6.0750489 62.875004
-3.4258881 6.0750489 62.875004
-3.289515 6.0774651 62.900002
-3.1517789 6.0774651 62.900002
-3.0152421 6.0798812 62.925003
-2.8774509 6.0798812 62.925003
-2.739661 6.0798812 62.925003
-2.600837 6.0774651 62.900002
-2.462122 6.0750489 62.875004
-2.3235171 6.0726342 62.850006
-2.1841519 6.0678029 62.800003
-2.045006 6.0629721 62.750008
-1.906078 6.0581412 62.700005
-1.76737 6.053309 62.650002
-1.628881 6.0484791 62.600006
-1.490015 6.0412321 62.525005
-1.351477 6.0339851 62.450005
-1.2137541 6.0291538 62.400002
-1.075819 6.0219069 62.325001
-0.93858898 6.017077 62.275005
-0.80190003 6.0146608 62.25
-0.66531998 6.0122461 62.225002
-0.52906299 6.0122461 62.225002
-0.39296299 6.0146608 62.25
-0.25675401 6.017077 62.275005
-0.120435 6.0194921 62.300003
0.015992999 6.0219069 62.325001
0.152592 6.0267391 62.375004
0.289294 6.0291538 62.400002
0.426276 6.0339851 62.450005
0.56325197 6.0364008 62.475002
0.70061702 6.0412321 62.525005
0.83786702 6.0436478 62.550003
0.97522497 6.046062 62.575001
1.112694 6.0484791 62.600006
1.250272 6.0508938 62.625004
1.387405 6.0508938 62.625004
1.525147 6.053309 62.650002
1.662335 6.053309 62.650002
1.7995239 6.053309 62.650002
1.937485 6.0557261 62.675007
2.074728 6.0557261 62.675007
2.211971 6.0557261 62.675007
2.3482771 6.053309 62.650002
2.485465 6.053309 62.650002
2.622653 6.053309 62.650002
2.7587399 6.0508938 62.625004
2.8958731 6.0508938 62.625004
3.0342169 6.053309 62.650002
3.171406 6.053309 62.650002
3.3099151 6.0557261 62.675007
3.4485331 6.0581412 62.700005
3.58869 6.0629721 62.750008
3.7290649 6.0678029 62.800003
3.8696611 6.0726342 62.850006
4.0120692 6.0798812 62.925003
4.2075648 6.1644239 63.800003
4.3626032 6.1861629 64.025002
4.5151091 6.2030721 64.200005
4.673821 6.2272272 64.450005
4.9064689 6.3455882 65.675003
5.0848861 6.3890681 66.125008
5.3324971 6.5146751 67.425003
5.5024929 6.5412459 67.700005
5.6674328 6.5605698 67.900002
5.8268251 6.572648 68.025002
5.9933519 6.5919719 68.225006
6.1855149 6.637867 68.700005
6.3497858 6.65236 68.850006
6.6280122 6.7827978 70.200005
6.7817321 6.7827978 70.200005
6.9379239 6.7852139 70.224998
7.094224 6.7876301 70.250008
7.2506342 6.7900448 70.275002
7.4097872 6.7948771 70.325005
-8.6649761 7.1241102 72.099998
-8.4982452 7.1167002 72.025002
-8.3028927 7.0845871 71.699997
-8.020916 6.9758968 70.600006
-7.818965 6.9339042 70.175003
-7.654377 6.9240241 70.075005
-7.4982519 6.9215531 70.050003
-7.3422389 6.9190822 70.025002
-7.186336 6.9166131 70.000008
-7.03054 6.9141421 69.974998
-6.8699412 6.9067321 69.900009
-6.7072668 6.8968511 69.800003
-6.545033 6.88697 69.700005
-6.3901138 6.8845 69.675003
-6.2308278 6.877089 69.600006
-6.0740538 6.872148 69.550003
-5.896214 6.8425059 69.250008
-5.6865048 6.7733402 68.550003
-5.5303402 6.7659292 68.474998
-5.3784318 6.7634592 68.450005
-5.1311522 6.6374769 67.175003
-4.956233 6.6004248 66.800003
-4.7685542 6.5436101 66.225006
-4.5327768 6.4151578 64.925003
-4.3838439 6.4052782 64.825005
-4.2124472 6.3608131 64.375
-4.0430212 6.31635 63.925003
-3.8694589 6.2620039 63.375004
-3.7100799 6.2274208 63.025005
-3.569237 6.2224808 62.975002
-3.429975 6.2200112 62.950005
-3.29213 6.2200112 62.950005
-3.1555369 6.2224808 62.975002
-3.017637 6.2224808 62.975002
-2.8785951 6.2200112 62.950005
-2.739661 6.2175412 62.925003
-2.600837 6.2150698 62.900002
-2.461143 6.2101302 62.850006
-2.322592 6.2076588 62.825001
-2.1832819 6.2027192 62.775005
-2.045006 6.2002492 62.750008
-1.906078 6.1953092 62.700005
-1.76737 6.1903682 62.650002
-1.628881 6.1854281 62.600006
-1.490611 6.1804872 62.550003
-1.352018 6.1730771 62.475002
-1.214241 6.1681371 62.425007
-1.076682 6.1631961 62.375004
-0.93971902 6.1607261 62.350006
-0.80286598 6.1582551 62.325001
-0.66638899 6.1582551 62.325001
-0.52991301 6.1582551 62.325001
-0.39343601 6.1582551 62.325001
-0.257063 6.1607261 62.350006
-0.12058 6.1631961 62.375004
0.016013 6.1656661 62.400002
0.152715 6.1681371 62.425007
0.28952599 6.1706061 62.450005
0.426447 6.1730771 62.475002
0.56347698 6.1755462 62.5
0.70061702 6.1780171 62.525005
0.83786702 6.1804872 62.550003
0.97522497 6.1829572 62.575001
1.112694 6.1854281 62.600006
1.250272 6.1878982 62.625004
1.387405 6.1878982 62.625004
1.525147 6.1903682 62.650002
1.662335 6.1903682 62.650002
1.7995239 6.1903682 62.650002
1.936712 6.1903682 62.650002
2.073072 6.1878982 62.625004
2.210206 6.1878982 62.625004
2.3464029 6.1854281 62.600006
2.4824891 6.1829572 62.575001
2.619513 6.1829572 62.575001
2.756537 6.1829572 62.575001
2.894717 6.1854281 62.600006
3.0330069 6.1878982 62.625004
3.171406 6.1903682 62.650002
3.311235 6.1953092 62.700005
3.451283 6.2002492 62.750008
3.5901189 6.2027192 62.775005
3.7305501 6.2076588 62.825001
3.8696611 6.2101302 62.850006
4.0104752 6.2150698 62.900002
4.2191062 6.32129 63.974998
4.3762298 6.3459921 64.224998
4.532691 6.3682241 64.450005
4.6955771 6.3978658 64.75
4.921411 6.509027 65.875008
5.175241 6.6498289 67.300003
5.3502922 6.684412 67.650002
5.5126519 6.701704 67.825005
5.6716061 6.7140541 67.950005
5.8289661 6.7239351 68.050003
5.986763 6.7338161 68.150002
6.1562529 6.7560482 68.375
6.3497858 6.8029819 68.850006
6.6209311 6.9289632 70.125
6.7769032 6.9314342 70.150009
6.9305139 6.9314342 70.150009
7.0891752 6.9363742 70.200005
7.2454748 6.9388442 70.224998
-8.6709862 7.2868919 72.150002
-8.5041456 7.2793169 72.075005
-8.3318424 7.2666931 71.949997
-8.1600885 7.2540679 71.825005
-7.8523922 7.117723 70.475006
-7.6707602 7.092474 70.224998
-7.5116329 7.0874238 70.175003
-7.3579669 7.0874238 70.175003
-7.2043009 7.0874238 70.175003
-7.0481229 7.0848989 70.150009
-6.8945122 7.0848989 70.150009
-6.7336931 7.0773239 70.075005
-6.5708561 7.067225 69.974998
-6.410749 7.0596499 69.900009
-6.255446 7.0571251 69.875
-6.1002541 7.0545998 69.850006
-5.928143 7.0318761 69.625
-5.6968751 6.9359288 68.675003
-5.5343781 6.9207802 68.525002
-5.3803959 6.91573 68.474998
-5.226634 6.9106798 68.425003
-4.9914761 6.7945352 67.275009
-4.8225579 6.764235 66.975006
-4.627028 6.6935382 66.275002
-4.4683771 6.6733389 66.075005
-4.254981 6.5672932 65.025002
-4.098361 6.544569 64.800003
-3.9396739 6.5167942 64.525002
-3.7483439 6.4309478 63.675003
-3.583406 6.385499 63.225002
-3.436785 6.3703489 63.075001
-3.298667 6.3703489 63.075001
-3.160548 6.3703489 63.075001
-3.0200329 6.3653002 63.025005
-2.8797381 6.36025 62.975002
-2.739661 6.3551998 62.925003
-2.599803 6.3501501 62.875004
-2.4601641 6.3450999 62.825001
-2.3216679 6.342576 62.800003
-2.1832819 6.3400512 62.775005
-2.045006 6.3375258 62.750008
-1.9068381 6.335001 62.725002
-1.768075 6.3299508 62.675007
-1.629531 6.3249021 62.625004
-1.491802 6.3223758 62.600006
-1.353641 6.317327 62.550003
-1.2157 6.3122759 62.5
-1.0779769 6.3072262 62.450005
-0.94085002 6.3047018 62.425007
-0.80415398 6.3047018 62.425007
-0.66745901 6.3047018 62.425007
-0.530976 6.3072262 62.450005
-0.394225 6.3072262 62.450005
-0.25747499 6.3072262 62.450005
-0.120773 6.309752 62.475002
0.016031999 6.309752 62.475002
0.15283699 6.309752 62.475002
0.28964201 6.309752 62.475002
0.42661801 6.3122759 62.5
0.56347698 6.3122759 62.5
0.70061702 6.3148012 62.525005
0.83786702 6.317327 62.550003
0.97483599 6.317327 62.550003
1.112249 6.3198509 62.575001
1.249773 6.3223758 62.600006
1.387405 6.3249021 62.625004
1.525147 6.327425 62.650002
1.662335 6.327425 62.650002
1.7995239 6.327425 62.650002
1.935939 6.3249021 62.625004
2.0722449 6.3223758 62.600006
2.208441 6.3198509 62.575001
2.344528 6.317327 62.550003
2.4805059 6.3148012 62.525005
2.61742 6.3148012 62.525005
2.7543349 6.3148012 62.525005
2.8935609 6.3198509 62.575001
3.0330069 6.3249021 62.625004
3.172672 6.3299508 62.675007
3.3138759 6.3375258 62.750008
3.4540319 6.342576 62.800003
3.594409 6.3476262 62.850006
3.7335191 6.3501501 62.875004
3.874279 6.3551998 62.925003
4.0136628 6.3577251 62.950005
4.2191062 6.461246 63.974998
4.394969 6.5142689 64.500008
4.5449991 6.5268941 64.625
4.768096 6.6405149 65.75
4.9811769 6.7339358 66.675003
5.1983099 6.8273592 67.600006
5.358201 6.8425069 67.75
5.5146852 6.8526068 67.850006
5.6716061 6.8627081 67.950005
5.8289661 6.872807 68.050003
5.9845672 6.8803821 68.125
6.1404972 6.8879561 68.200005
6.3567028 6.9611788 68.925003
6.61621 7.0773239 70.075005
6.7720718 7.0798488 70.100006
6.9255748 7.0798488 70.100006
7.084126 7.0848989 70.150009
-8.6830034 7.4550509 72.25
-8.5100451 7.442153 72.125008
-8.3405275 7.4318352 72.025002
-8.1714497 7.4215159 71.925003
-8.0055952 7.4137778 71.849998
-7.6898761 7.2641611 70.400009
-7.527689 7.256422 70.325005
-7.3710728 7.2538419 70.300003
-7.2196999 7.256422 70.325005
-7.0657058 7.256422 70.325005
-6.9117112 7.256422 70.325005
-6.7577171 7.256422 70.325005
-6.6037221 7.256422 70.325005
-6.4428492 7.248683 70.250008
-6.2845421 7.2435241 70.200005
-6.119905 7.2306261 70.075005
-5.9515572 7.2125692 69.900009
-5.771533 7.1790342 69.575005
-5.536397 7.0732698 68.550003
-5.3823609 7.0681109 68.500008
-5.2285428 7.062952 68.450005
-5.074944 7.0577931 68.400002
-4.8531599 6.954608 67.400002
-4.6933532 6.9365511 67.225006
-4.4920449 6.8540039 66.425003
-4.3335042 6.8333669 66.225006
-4.1742568 6.8101501 66
-3.990046 6.7430811 65.349998
-3.8322289 6.7172852 65.100006
-3.6755061 6.6914892 64.850006
-3.522604 6.6708522 64.650002
-3.3718841 6.6527948 64.475006
-3.219425 6.6295791 64.250008
-3.0607641 6.5908842 63.875
-2.893456 6.528975 63.275002
-2.7385719 6.4902802 62.900002
-2.5987689 6.4851208 62.850006
-2.4591849 6.4799609 62.800003
-2.320744 6.4773822 62.775005
-2.1832819 6.4773822 62.775005
-2.045006 6.474802 62.750008
-1.907598 6.474802 62.750008
-1.769486 6.4722219 62.725002
-1.630832 6.4670639 62.675007
-1.492994 6.4644842 62.650002
-1.354724 6.4593248 62.600006
-1.217158 6.4567451 62.575001
-1.079703 6.454165 62.550003
-0.942357 6.4515858 62.525005
-0.80544198 6.4515858 62.525005
-0.66879499 6.454165 62.550003
-0.53182602 6.454165 62.550003
-0.39501399 6.4567451 62.575001
-0.25788701 6.454165 62.550003
-0.120918 6.454165 62.550003
0.016051 6.454165 62.550003
0.152959 6.4515858 62.525005
0.28987399 6.4515858 62.525005
0.426788 6.4515858 62.525005
0.563703 6.4515858 62.525005
0.70061702 6.4515858 62.525005
0.83753198 6.4515858 62.525005
0.97483599 6.454165 62.550003
1.112249 6.4567451 62.575001
1.249773 6.4593248 62.600006
1.387959 6.4644842 62.650002
1.525756 6.4670639 62.675007
1.662999 6.4670639 62.675007
1.8002419 6.4670639 62.675007
1.936712 6.4644842 62.650002
2.0722449 6.4593248 62.600006
2.2075591 6.454165 62.550003
2.343591 6.4515858 62.525005
2.4785221 6.4464259 62.475002
2.6153269 6.4464259 62.475002
2.753233 6.4490061 62.5
2.892405 6.454165 62.550003
3.0330069 6.461904 62.625004
3.1764679 6.474802 62.750008
3.317836 6.4825411 62.825001
3.459532 6.4902802 62.900002
3.5986979 6.4928598 62.925003
3.7394569 6.4980192 62.975002
3.8804359 6.5031781 63.025005
4.0200391 6.5057569 63.050003
4.1696439 6.5238152 63.225002
4.4034858 6.668272 64.625
4.5485148 6.6734319 64.675003
4.7753482 6.794673 65.849998
5.037209 6.9571881 67.425003
5.2059999 6.9855642 67.700005
5.360178 6.9933028 67.775002
5.516716 7.0036211 67.875
5.6716061 7.0113602 67.950005
5.8289661 7.021678 68.050003
5.9823709 7.0268378 68.100006
6.1359949 7.0319972 68.150002
6.3820639 7.1403399 69.200005
6.609129 7.222887 70.000008
6.767241 7.2280459 70.050003
6.9206338 7.2280459 70.050003
-8.5218439 7.610477 72.225006
-8.3492126 7.5973058 72.099998
-8.1799707 7.5867682 72
-8.0139523 7.578866 71.925003
-7.8509932 7.573597 71.875008
-7.54107 7.4234419 70.450005
-7.3841801 7.4208078 70.425003
-7.2299662 7.4208078 70.425003
-7.0782652 7.4234419 70.450005
-6.923996 7.4234419 70.450005
-6.7697282 7.4234419 70.450005
-6.615459 7.4234419 70.450005
-6.458899 7.4208078 70.425003
-6.295732 7.4102712 70.325005
-6.1308212 7.397099 70.200005
-5.9643278 7.3812928 70.050003
-5.7901969 7.35495 69.800003
-5.6151419 7.325974 69.525002
-5.3862891 7.2232361 68.550003
-5.2323632 7.217968 68.500008
-5.0786538 7.212698 68.450005
-4.919765 7.1995268 68.325005
-4.7247701 7.1310358 67.675003
-4.564744 7.112596 67.5
-4.4054842 7.0941548 67.325005
-4.224854 7.038836 66.800003
-4.0617881 7.0098581 66.525002
-3.8969829 6.9756131 66.200005
-3.7109301 6.8992181 65.475006
-3.5457599 6.857069 65.075005
-3.3797281 6.8096509 64.625
-3.225688 6.783309 64.375
-3.075139 6.7622342 64.175003
-2.926609 6.743794 64.000008
-2.7799339 6.7279878 63.850002
-2.5987689 6.6226168 62.850006
-2.4601641 6.6199818 62.825001
-2.3216679 6.6173482 62.800003
-2.1841519 6.6173482 62.800003
-2.0466349 6.6173482 62.800003
-1.908358 6.6147141 62.775005
-1.770896 6.6147141 62.775005
-1.632784 6.6120801 62.750008
-1.494781 6.6094451 62.725002
-1.3568881 6.606812 62.700005
-1.2191041 6.604177 62.675007
-1.081429 6.601542 62.650002
-0.94386399 6.598907 62.625004
-0.80673099 6.598907 62.625004
-0.669864 6.601542 62.650002
-0.53267598 6.601542 62.650002
-0.39548799 6.601542 62.650002
-0.25830001 6.601542 62.650002
-0.121063 6.598907 62.625004
0.016070001 6.598907 62.625004
0.153143 6.5962739 62.600006
0.29010499 6.5936389 62.575001
0.42695901 6.5910048 62.550003
0.563703 6.5883708 62.525005
0.70061702 6.5883708 62.525005
0.83753198 6.5883708 62.525005
0.97483599 6.5910048 62.550003
1.112249 6.5936389 62.575001
1.250272 6.598907 62.625004
1.387959 6.601542 62.650002
1.526364 6.606812 62.700005
1.663662 6.606812 62.700005
1.8009599 6.606812 62.700005
1.937485 6.604177 62.675007
2.0739 6.601542 62.650002
2.208441 6.5936389 62.575001
2.343591 6.5883708 62.525005
2.4795139 6.5857372 62.5
2.6153269 6.5831022 62.475002
2.753233 6.5857372 62.5
2.892405 6.5910048 62.550003
3.036639 6.606812 62.700005
3.182796 6.6252508 62.875004
3.3244381 6.633153 62.950005
3.466408 6.641057 63.025005
3.6058469 6.6436911 63.050003
3.7453949 6.6463261 63.075001
3.8881321 6.6542282 63.150002
4.0280089 6.6568632 63.175003
4.1696439 6.6621308 63.225002
4.40519 6.8122859 64.650002
4.5485148 6.8149199 64.675003
4.7753482 6.9387321 65.849998
5.0484152 7.1204982 67.575005
5.2059999 7.1336699 67.700005
5.360178 7.141573 67.775002
5.5146852 7.1494761 67.850006
5.6716061 7.1600132 67.950005
5.8268251 7.1679158 68.025002
5.980175 7.1731839 68.075005
6.1359949 7.181087 68.150002
6.3889818 7.2996302 69.275002
6.5902448 7.35495 69.800003
6.7624121 7.3760252 70.000008
6.9181652 7.3786588 70.025002
-8.5395422 7.784616 72.375008
-8.3607931 7.7657938 72.200005
-8.1913319 7.7550368 72.099998
-8.0250931 7.7469702 72.025002
-7.8619151 7.7415919 71.975006
-7.696279 7.7335248 71.900002
-7.3920441 7.582942 70.500008
-7.2376661 7.582942 70.500008
-7.0858002 7.5856309 70.525002
-6.9313669 7.5856309 70.525002
-6.7769351 7.5856309 70.525002
-6.6225019 7.5856309 70.525002
-6.4634838 7.5802541 70.475006
-6.3046842 7.5748749 70.425003
-6.1439209 7.5668082 70.350006
-5.968585 7.5399179 70.100006
-5.7881241 7.504961 69.775002
-5.6272569 7.494206 69.675003
-5.4629002 7.4780722 69.525002
-5.2514591 7.3947129 68.750008
-5.082365 7.3678231 68.500008
-4.9269662 7.359756 68.425003
-4.768405 7.3463111 68.300003
-4.5968661 7.3113551 67.975006
-4.4382019 7.2952199 67.825005
-4.2786131 7.2763972 67.650002
-4.0862098 7.1984162 66.925003
-3.9264159 7.1742158 66.700005
-3.7690229 7.1527038 66.5
-3.5798149 7.0666571 65.699997
-3.4071839 7.0074992 65.150002
-3.2357099 6.945652 64.575005
-3.079931 6.913384 64.275002
-2.9323249 6.8972511 64.125
-2.7864649 6.8838062 64.000008
-2.642185 6.8730502 63.900005
-2.4601641 6.7574229 62.825001
-2.322592 6.7574229 62.825001
-2.1850209 6.7574229 62.825001
-2.048265 6.7601118 62.850006
-1.910638 6.7601118 62.850006
-1.773012 6.7601118 62.850006
-1.635386 6.7601118 62.850006
-1.497164 6.7574229 62.825001
-1.3590519 6.754735 62.800003
-1.221049 6.7520461 62.775005
-1.082724 6.7466669 62.725002
-0.94537097 6.7466669 62.725002
-0.807697 6.743979 62.700005
-0.67039901 6.743979 62.700005
-0.53331399 6.7466669 62.725002
-0.39596099 6.7466669 62.725002
-0.258609 6.7466669 62.725002
-0.121208 6.743979 62.700005
0.016083 6.7412901 62.675007
0.153265 6.7385998 62.650002
0.290337 6.7359109 62.625004
0.427129 6.7305341 62.575001
0.56392801 6.7278442 62.550003
0.70089698 6.7278442 62.550003
0.83753198 6.7251549 62.525005
0.97483599 6.7278442 62.550003
1.112694 6.733222 62.600006
1.250272 6.7359109 62.625004
1.3890671 6.743979 62.700005
1.526973 6.7466669 62.725002
1.664989 6.7493572 62.750008
1.8031141 6.7520461 62.775005
1.939803 6.7493572 62.750008
2.0755551 6.743979 62.700005
2.2110879 6.7385998 62.650002
2.3454649 6.7305341 62.575001
2.4805059 6.7251549 62.525005
2.616374 6.722466 62.5
2.7543349 6.7251549 62.525005
2.8958731 6.7359109 62.625004
3.049958 6.7735572 62.975002
3.19292 6.7843118 63.075001
3.3323591 6.7870021 63.100006
3.4732831 6.7923799 63.150002
3.6129961 6.7950702 63.175003
3.7528181 6.7977581 63.200005
3.895828 6.8058252 63.275002
4.0343852 6.8058252 63.275002
4.176239 6.811203 63.325005
4.4034858 6.9510298 64.625
4.5537901 6.9644752 64.75
4.7771611 7.0854802 65.875008
5.0484152 7.2683311 67.575005
5.2059999 7.281776 67.700005
5.360178 7.2898431 67.775002
5.5146852 7.2979102 67.850006
5.6695199 7.3059769 67.925003
5.8246832 7.314044 68
5.9779792 7.3194208 68.050003
6.131494 7.3248 68.100006
6.3912868 7.4538708 69.300003
6.5690022 7.483449 69.575005
-8.5483923 7.95118 72.450005
-8.3723736 7.9347191 72.300003
-8.205533 7.926487 72.225006
-8.0390205 7.9182572 72.150002
-7.8755689 7.9127679 72.099998
-7.7123361 7.9072819 72.050003
-7.5335941 7.8853321 71.849998
-7.2453661 7.7454052 70.575005
-7.0908232 7.7454052 70.575005
-6.9362822 7.7454052 70.575005
-6.784142 7.748148 70.600006
-6.6295452 7.748148 70.600006
-6.4703622 7.742661 70.550003
-6.311399 7.7371731 70.500008
-6.1526542 7.7316861 70.450005
-5.960072 7.6823001 70.000008
-5.7860498 7.6548629 69.750008
-5.6272569 7.6466322 69.675003
-5.4648638 7.6329141 69.550003
-5.303019 7.619195 69.425003
-5.1361551 7.5972452 69.224998
-4.9395671 7.5286541 68.600006
-4.777132 7.509449 68.425003
-4.6171541 7.4929862 68.275002
-4.4512892 7.465549 68.025002
-4.294425 7.4518309 67.900002
-4.1396351 7.440856 67.800003
-3.9440761 7.3530579 67
-3.7789421 7.31739 66.675003
-3.6206801 7.292697 66.450005
-3.4359479 7.2103872 65.699997
-3.2570059 7.133564 65
-3.085921 7.0677161 64.400009
-2.935755 7.0457659 64.200005
-2.7897301 7.0320482 64.075005
-2.6452861 7.0210729 63.974998
-2.50226 7.0128431 63.900005
-2.329062 6.9140701 63.000004
-2.1867599 6.900352 62.875004
-2.0498941 6.9030948 62.900002
-1.912918 6.905839 62.925003
