ply
format ascii 1.0
comment PCL generated
element vertex 1589
property float x
property float y
property float z
element face 0
element camera 0
property float view_px
property float view_py
property float view_pz
property float x_axisx
property float x_axisy
property float x_axisz
property float y_axisx
property float y_axisy
property float y_axisz
property float z_axisx
property float z_axisy
property float z_axisz
property float focal
property float scalex
property float scaley
property float centerx
property float centery
property int viewportx
property int viewporty
property float k1
property float k2
end_header
6.0279508 -1.147405 66.950005
6.1814728 -1.1486911 67.025009
6.3353219 -1.149976 67.099998
6.4846702 -1.150405 67.125008
6.6365972 -1.151261 67.175003
6.7862191 -1.15169 67.200005
6.938529 -1.152547 67.25
7.0884242 -1.152975 67.275009
7.2438068 -1.154261 67.350006
7.3995171 -1.1555459 67.425003
7.5583549 -1.1572599 67.525009
7.7147779 -1.158545 67.600006
7.8744369 -1.160259 67.700005
8.0345345 -1.161973 67.800003
8.1920509 -1.163258 67.875
8.3498974 -1.164544 67.950005
8.5143242 -1.1666861 68.075005
8.6824808 -1.169257 68.225006
8.8512955 -1.171827 68.375
9.014184 -1.1735409 68.474998
9.1775103 -1.1752549 68.574997
9.3344746 -1.1761121 68.625
9.4951134 -1.177397 68.700005
9.6525698 -1.178254 68.750008
9.8102465 -1.179111 68.800003
9.9681396 -1.179968 68.850006
10.126252 -1.180825 68.900002
10.288313 -1.18211 68.974998
10.443136 -1.182539 69.000008
10.605744 -1.1838239 69.075005
10.932197 -1.203105 70.200005
11.172773 -1.212531 70.750008
11.35972 -1.215958 70.950005
11.644922 -1.229669 71.75
11.888393 -1.238667 72.275002
12.125831 -1.246807 72.75
12.2978 -1.248093 72.825005
12.628325 -1.265231 73.825005
12.837629 -1.269944 74.100006
-1.489475 -1.144839 76.575005
-1.2764831 -1.105594 73.950005
-1.099856 -1.091017 72.975006
-0.92137998 -1.069339 71.525002
-0.76047999 -1.063359 71.125
-0.59197998 -1.040933 69.625
-0.43099701 -1.02075 68.275002
-0.28128499 -1.020002 68.225006
-0.13179199 -1.019255 68.175003
0.017469 -1.01776 68.075005
0.166292 -1.016265 67.975006
0.314677 -1.01477 67.875
0.46245301 -1.0129009 67.75
0.60990798 -1.0114059 67.650002
0.75664401 -1.009537 67.525009
0.903503 -1.0084161 67.450005
1.049643 -1.0069211 67.350006
1.195346 -1.005425 67.25
1.340611 -1.00393 67.150002
1.485437 -1.002435 67.050003
1.6298259 -1.00094 66.950005
1.773777 -0.99944502 66.849998
1.918008 -0.99832398 66.775009
2.0626831 -0.997576 66.725006
2.207139 -0.99682897 66.675003
2.3522589 -0.99645501 66.650002
2.4982071 -0.99645501 66.650002
2.643162 -0.99608099 66.625008
2.7890539 -0.99608099 66.625008
2.934947 -0.99608099 66.625008
3.0808389 -0.99608099 66.625008
3.2255211 -0.99570799 66.599998
3.3700941 -0.99533403 66.575005
3.513236 -0.99458599 66.525002
3.654784 -0.99346501 66.450005
3.794574 -0.99197 66.349998
3.935411 -0.99084902 66.275002
4.0759201 -0.98972702 66.200005
4.2192869 -0.98935401 66.175003
4.362546 -0.98898 66.150002
4.5091009 -0.98935401 66.175003
4.655767 -0.98972702 66.200005
4.8061681 -0.99084902 66.275002
4.955029 -0.99159598 66.325005
5.1060328 -0.99271703 66.400002
5.2593408 -0.99421197 66.5
5.411056 -0.99533403 66.575005
5.5651851 -0.99682897 66.675003
5.7197528 -0.99832398 66.775009
5.8747592 -0.99981898 66.875008
6.0279508 -1.00094 66.950005
6.1814728 -1.002062 67.025009
6.3353219 -1.003183 67.099998
6.4846702 -1.003557 67.125008
6.6365972 -1.0043041 67.175003
6.7862191 -1.004678 67.200005
6.9359498 -1.005052 67.225006
7.0857902 -1.005425 67.25
7.241118 -1.006547 67.325005
7.3995171 -1.008042 67.425003
7.5611539 -1.0099109 67.550003
7.7204838 -1.0114059 67.650002
7.8802519 -1.0129009 67.75
8.0374956 -1.014022 67.825005
8.1920509 -1.01477 67.875
8.3468246 -1.015517 67.925003
8.5049438 -1.016638 68
8.6665735 -1.018134 68.100006
8.8351135 -1.020376 68.25
9.0010204 -1.022245 68.375
9.1641273 -1.0237401 68.474998
9.3242731 -1.024861 68.550003
9.4847479 -1.025982 68.625
9.6420403 -1.0267299 68.675003
9.7995501 -1.027477 68.724998
9.9609003 -1.028599 68.800003
10.122578 -1.0297199 68.875
10.280856 -1.030468 68.925003
10.443136 -1.031589 69.000008
10.624936 -1.034579 69.200005
10.912731 -1.0476609 70.075005
11.153033 -1.055884 70.625
11.343709 -1.059247 70.850006
11.608405 -1.069339 71.525002
11.834934 -1.075693 71.949997
12.129997 -1.088027 72.775009
12.411785 -1.098866 73.5
12.692473 -1.109332 74.200005
12.854953 -1.109332 74.200005
-1.438416 -0.94381499 73.950005
-1.25879 -0.93073303 72.925003
-1.080639 -0.91509902 71.699997
-0.91558301 -0.90712202 71.075005
-0.75059003 -0.89595401 70.200005
-0.59176803 -0.88829702 69.600006
-0.436836 -0.883192 69.200005
-0.28118199 -0.87042898 68.200005
-0.131695 -0.86947203 68.125
0.017456001 -0.868195 68.025002
0.16617 -0.86691898 67.925003
0.314329 -0.86532402 67.800003
0.461941 -0.86372799 67.675003
0.60900599 -0.86213303 67.550003
0.755804 -0.86085701 67.450005
0.90249801 -0.85989898 67.375008
1.048864 -0.85894197 67.300003
1.1944571 -0.85766602 67.200005
1.340111 -0.856709 67.125008
1.484884 -0.85543197 67.025009
1.629217 -0.85415602 66.925003
1.773114 -0.85288 66.825005
1.91729 -0.85192299 66.75
2.0619099 -0.85128403 66.700005
2.207139 -0.85096502 66.675003
2.3522589 -0.85064602 66.650002
2.4972701 -0.85032701 66.625008
2.64217 -0.85000801 66.599998
2.788008 -0.85000801 66.599998
2.932744 -0.84968901 66.575005
3.0773709 -0.84937 66.550003
3.221889 -0.849051 66.525002
3.366297 -0.84873199 66.5
3.509275 -0.84809399 66.450005
3.6506591 -0.84713602 66.375008
3.7917149 -0.84617901 66.300003
3.9339271 -0.845541 66.25
4.0759201 -0.84490299 66.200005
4.2192869 -0.84458399 66.175003
4.362546 -0.84426498 66.150002
4.5091009 -0.84458399 66.175003
4.655767 -0.84490299 66.200005
4.8043551 -0.845541 66.25
4.9531622 -0.84617901 66.300003
5.1041098 -0.84713602 66.375008
5.2553868 -0.84809399 66.450005
5.4090238 -0.84937 66.550003
5.563098 -0.85064602 66.650002
5.7197528 -0.85224199 66.775009
5.8747592 -0.85351801 66.875008
6.0279508 -0.85447502 66.950005
6.1814728 -0.85543197 67.025009
6.3353219 -0.85639 67.099998
6.4870849 -0.85702801 67.150002
6.6365972 -0.85734701 67.175003
6.7862191 -0.85766602 67.200005
6.9333701 -0.85766602 67.200005
7.0831561 -0.85798502 67.225006
7.2384291 -0.85894197 67.300003
7.394031 -0.85989898 67.375008
7.5611539 -0.86213303 67.550003
7.729043 -0.86436599 67.725006
7.8860679 -0.86532402 67.800003
8.0404587 -0.86596203 67.850006
8.1920509 -0.86628097 67.875
8.3468246 -0.86691898 67.925003
8.4986906 -0.86723799 67.950005
8.6538467 -0.86787599 68
8.8124599 -0.86883301 68.075005
8.9812737 -0.87074798 68.225006
9.1440535 -0.872024 68.325005
9.3072701 -0.87330002 68.425003
9.4674711 -0.87425798 68.500008
9.6279993 -0.87521499 68.574997
9.7888556 -0.87617201 68.650002
9.9500408 -0.87712902 68.724998
10.111555 -0.87808698 68.800003
10.277126 -0.879363 68.900002
10.446919 -0.88095802 69.025002
10.740091 -0.89276397 69.950005
10.916624 -0.894678 70.100006
11.113553 -0.89818799 70.375
11.323696 -0.90265501 70.725006
11.531314 -0.90680301 71.050003
11.806149 -0.91605598 71.775002
12.129997 -0.928819 72.775009
12.432894 -0.93966699 73.625008
12.696749 -0.94732499 74.225006
12.859283 -0.94732499 74.225006
-1.600348 -0.78203601 73.950005
-1.401459 -0.761944 72.050003
-1.227288 -0.75189698 71.100006
-1.068959 -0.75004601 70.925003
-0.90366697 -0.74185097 70.150009
-0.74470901 -0.73656303 69.650002
-0.590918 -0.73497701 69.500008
-0.437783 -0.73339099 69.350006
-0.2818 -0.72281498 68.350006
-0.13164701 -0.72017199 68.100006
0.017442999 -0.71885002 67.975006
0.165986 -0.71752799 67.850006
0.31398201 -0.71620601 67.725006
0.46143001 -0.71488398 67.600006
0.60855502 -0.713826 67.5
0.755243 -0.71276897 67.400002
0.90216303 -0.71223998 67.350006
1.048475 -0.711447 67.275009
1.1944571 -0.71065402 67.200005
1.339612 -0.70959598 67.099998
1.4843301 -0.70853901 67
1.629217 -0.70774603 66.925003
1.773114 -0.70668799 66.825005
1.91729 -0.70589501 66.75
2.0619099 -0.70536602 66.700005
2.2063119 -0.70483798 66.650002
2.351377 -0.70457298 66.625008
2.4963319 -0.70430899 66.599998
2.6411779 -0.70404398 66.575005
2.7859149 -0.70378 66.550003
2.930542 -0.70351601 66.525002
3.0739031 -0.70298702 66.475006
3.218256 -0.70272201 66.450005
3.3612349 -0.70219398 66.400002
3.503994 -0.70166498 66.349998
3.646534 -0.70113599 66.300003
3.7888551 -0.700607 66.25
3.930958 -0.70007902 66.200005
4.0743799 -0.69981402 66.175003
4.2176938 -0.69954997 66.150002
4.362546 -0.69954997 66.150002
4.5073981 -0.69954997 66.150002
4.6540079 -0.69981402 66.175003
4.8007288 -0.70007902 66.200005
4.9494262 -0.700607 66.25
5.100265 -0.701401 66.325005
5.2534089 -0.70245802 66.425003
5.406991 -0.70351601 66.525002
5.563098 -0.70483798 66.650002
5.7176108 -0.70589501 66.75
5.8747592 -0.70721698 66.875008
6.0279508 -0.70801002 66.950005
6.1814728 -0.708803 67.025009
6.3353219 -0.70959598 67.099998
6.4870849 -0.71012503 67.150002
6.6365972 -0.71038902 67.175003
6.7862191 -0.71065402 67.200005
6.9359498 -0.71091801 67.225006
7.0857902 -0.71118301 67.25
7.2384291 -0.71171099 67.300003
7.3912868 -0.71223998 67.350006
7.566751 -0.71488398 67.600006
7.7376022 -0.71699899 67.800003
7.8918839 -0.71752799 67.850006
8.0463839 -0.71805602 67.900002
8.1950684 -0.71805602 67.900002
8.3437529 -0.71805602 67.900002
8.4955645 -0.71832103 67.925003
8.6443033 -0.71832103 67.925003
8.796278 -0.71858501 67.950005
8.9549456 -0.71937799 68.025002
9.1172867 -0.72043598 68.125
9.2800655 -0.72149301 68.225006
9.4467392 -0.72281498 68.350006
9.6104498 -0.72387302 68.450005
9.7745972 -0.72492999 68.550003
9.9391823 -0.72598797 68.650002
10.100533 -0.72678101 68.724998
10.277126 -0.72863197 68.900002
10.583134 -0.73947102 69.925003
10.755445 -0.74079299 70.050003
10.928304 -0.74211502 70.175003
11.109606 -0.74396598 70.350006
11.29968 -0.74634498 70.575005
11.474509 -0.74766701 70.700005
11.797925 -0.75850701 71.725006
12.134165 -0.76987499 72.800003
12.390677 -0.77595598 73.375008
12.701026 -0.785209 74.25
12.863615 -0.785209 74.25
-1.560312 -0.60474098 72.099998
-1.378603 -0.59446597 70.875
-1.222541 -0.59404701 70.825005
-1.06067 -0.59027201 70.375
-0.89722598 -0.58419102 69.650002
-0.74283803 -0.58272302 69.474998
-0.59006703 -0.58209401 69.400002
-0.43652001 -0.579997 69.150002
-0.281903 -0.573497 68.375
-0.13155 -0.57077098 68.050003
0.01743 -0.56972301 67.925003
0.16586401 -0.56867403 67.800003
0.31375 -0.567626 67.675003
0.46125901 -0.566787 67.575005
0.60833001 -0.56594801 67.475006
0.755243 -0.565319 67.400002
0.90182799 -0.56468999 67.325005
1.048475 -0.56427097 67.275009
1.1944571 -0.56364202 67.200005
1.340611 -0.56322199 67.150002
1.485437 -0.56238401 67.050003
1.6298259 -0.56154501 66.950005
1.773777 -0.56070602 66.849998
1.91729 -0.55986702 66.75
2.0619099 -0.559448 66.700005
2.2063119 -0.55902898 66.650002
2.3504939 -0.55860901 66.599998
2.4953949 -0.55839998 66.575005
2.639194 -0.55798 66.525002
2.7827749 -0.55756098 66.475006
2.927238 -0.55735099 66.450005
3.070435 -0.55693197 66.400002
3.213413 -0.556512 66.349998
3.356173 -0.55609298 66.300003
3.498713 -0.55567402 66.25
3.6410339 -0.55525398 66.200005
3.7845659 -0.55504501 66.175003
3.927989 -0.55483502 66.150002
4.0713019 -0.55462497 66.125008
4.2161002 -0.55462497 66.125008
4.3592482 -0.55441499 66.099998
4.5039911 -0.55441499 66.099998
4.6504931 -0.55462497 66.125008
4.7971029 -0.55483502 66.150002
4.9456911 -0.55525398 66.200005
5.0964198 -0.55588299 66.275002
5.249455 -0.55672199 66.375008
5.4049602 -0.55777103 66.5
5.5610118 -0.558819 66.625008
5.7176108 -0.55986702 66.75
5.8747592 -0.56091601 66.875008
6.0279508 -0.56154501 66.950005
6.1837778 -0.56238401 67.050003
6.3353219 -0.56280297 67.099998
6.4895 -0.56343198 67.175003
6.6390672 -0.56364202 67.200005
6.788743 -0.56385201 67.225006
6.938529 -0.56406099 67.25
7.0884242 -0.56427097 67.275009
7.241118 -0.56468999 67.325005
7.394031 -0.56511003 67.375008
7.5779438 -0.56783599 67.700005
7.743309 -0.569094 67.850006
7.8976989 -0.56951302 67.900002
8.0493469 -0.56972301 67.925003
8.1980858 -0.56972301 67.925003
8.3437529 -0.56951302 67.900002
8.4893103 -0.56930298 67.875
8.6379404 -0.56930298 67.875
8.7865696 -0.56930298 67.875
8.941782 -0.56972301 67.925003
9.0972118 -0.57014197 67.975006
9.2596626 -0.57098103 68.075005
9.4260082 -0.57202899 68.200005
9.5893888 -0.57286799 68.300003
9.7567739 -0.57391697 68.425003
9.9174662 -0.57454598 68.500008
10.082161 -0.57538402 68.600006
10.426287 -0.58628798 69.900009
10.594485 -0.58712697 70.000008
10.763123 -0.58796602 70.100006
10.93609 -0.58901399 70.224998
11.113553 -0.59027201 70.375
11.287671 -0.59132099 70.500008
11.45828 -0.59215897 70.600006
11.802037 -0.60180497 71.75
12.150832 -0.61145103 72.900002
12.378013 -0.614806 73.300003
12.696749 -0.62256402 74.225006
12.859283 -0.62256402 74.225006
-1.718194 -0.447009 72.099998
-1.53272 -0.43910399 70.825005
-1.376658 -0.43879399 70.775002
-1.210027 -0.434609 70.100006
-1.047859 -0.43104401 69.525002
-0.89497203 -0.43073401 69.474998
-0.74203598 -0.430269 69.400002
-0.58900499 -0.42949501 69.275002
-0.43304801 -0.42530999 68.600006
-0.280873 -0.42236501 68.125
-0.131405 -0.421435 67.975006
0.017418001 -0.42081499 67.875
0.165803 -0.42019501 67.775002
0.31375 -0.41957501 67.675003
0.461088 -0.4188 67.550003
0.60833001 -0.41833499 67.475006
0.755243 -0.41786999 67.400002
0.90216303 -0.41756001 67.350006
1.048864 -0.41725001 67.300003
1.195346 -0.41694 67.25
1.341609 -0.41663 67.200005
1.4870991 -0.41616499 67.125008
1.631043 -0.41539001 67
1.7744401 -0.41461501 66.875008
1.918008 -0.413995 66.775009
2.0619099 -0.41352999 66.700005
2.2054839 -0.41306499 66.625008
2.349612 -0.41275501 66.575005
2.493521 -0.41244501 66.525002
2.6372111 -0.412135 66.475006
2.779635 -0.41167 66.400002
2.922832 -0.41136 66.349998
3.0646551 -0.41089499 66.275002
3.2061491 -0.41043001 66.200005
3.3485799 -0.41012001 66.150002
3.4921119 -0.40996501 66.125008
3.635534 -0.40981001 66.099998
3.778847 -0.409655 66.075005
3.9235351 -0.409655 66.075005
4.068223 -0.409655 66.075005
4.2129121 -0.409655 66.075005
4.3575988 -0.409655 66.075005
4.5005841 -0.4095 66.050003
4.646976 -0.409655 66.075005
4.7934771 -0.40981001 66.099998
4.941956 -0.41012001 66.150002
5.092576 -0.41058499 66.225006
5.247478 -0.41136 66.349998
5.4029279 -0.412135 66.475006
5.5610118 -0.41306499 66.625008
5.7176108 -0.41384 66.75
5.8747592 -0.41461501 66.875008
6.0279508 -0.41508001 66.950005
6.1837778 -0.41569999 67.050003
6.3376818 -0.41616499 67.125008
6.4895 -0.416475 67.175003
6.6415372 -0.416785 67.225006
6.7912669 -0.41694 67.25
6.9411082 -0.41709501 67.275009
7.0910592 -0.41725001 67.300003
7.2464962 -0.41771501 67.375008
7.405005 -0.41833499 67.475006
7.58354 -0.42004001 67.75
7.743309 -0.42065999 67.850006
7.8976989 -0.42096999 67.900002
8.052309 -0.42128 67.950005
8.1980858 -0.42112499 67.925003
8.3437529 -0.42096999 67.900002
8.4893103 -0.42081499 67.875
8.6347589 -0.42065999 67.850006
8.7833338 -0.42065999 67.850006
8.9319077 -0.42065999 67.850006
9.0871744 -0.42096999 67.900002
9.2460604 -0.421435 67.975006
9.4087315 -0.42205501 68.075005
9.5718393 -0.42267501 68.175003
9.7389498 -0.42344999 68.300003
9.8957491 -0.42376 68.350006
10.056442 -0.424225 68.425003
10.437473 -0.43383399 69.974998
10.598269 -0.43414399 70.025002
10.766961 -0.434764 70.125
10.939983 -0.43553901 70.250008
11.117502 -0.43646899 70.400009
11.283669 -0.43693399 70.475006
11.450163 -0.437399 70.550003
11.802037 -0.444839 71.75
12.154999 -0.452124 72.925003
12.356903 -0.45367399 73.175003
12.692473 -0.46002901 74.200005
12.859283 -0.46018401 74.225006
-1.876075 -0.28927699 72.099998
-1.685427 -0.28376099 70.725006
-1.530015 -0.28365999 70.700005
-1.353317 -0.279147 69.575005
-1.200101 -0.27894601 69.525002
-1.047105 -0.278745 69.474998
-0.894328 -0.27854499 69.425003
-0.74176902 -0.27834401 69.375
-0.58135301 -0.27433199 68.375
-0.430365 -0.27353001 68.175003
-0.28046 -0.272928 68.025002
-0.131309 -0.27252701 67.925003
0.017410999 -0.27222601 67.850006
0.165741 -0.271824 67.75
0.31363401 -0.27142301 67.650002
0.46125901 -0.27112201 67.575005
0.60855502 -0.27082101 67.5
0.75552398 -0.27052 67.425003
0.90249801 -0.27032 67.375008
1.049643 -0.27022001 67.350006
1.1962349 -0.27001899 67.300003
1.343106 -0.26991901 67.275009
1.48876 -0.269618 67.200005
1.633478 -0.26921701 67.099998
1.77643 -0.26861501 66.950005
1.918726 -0.268013 66.800003
2.0619099 -0.26761201 66.700005
2.2054839 -0.26731101 66.625008
2.347847 -0.26690999 66.525002
2.49071 -0.26660901 66.450005
2.633244 -0.26630801 66.375008
2.775449 -0.26600701 66.300003
2.916225 -0.26560599 66.200005
3.057719 -0.26530501 66.125008
3.198884 -0.26500401 66.050003
3.342252 -0.26490301 66.025002
3.4855101 -0.26480299 66
3.630034 -0.26480299 66
3.7745581 -0.26480299 66
3.9190819 -0.26480299 66
4.0636048 -0.26480299 66
4.2081299 -0.26480299 66
4.352654 -0.26480299 66
4.4971771 -0.26480299 66
4.6417012 -0.26480299 66
4.7880378 -0.26490301 66.025002
4.93822 -0.26520401 66.099998
5.0887299 -0.26550499 66.175003
5.245501 -0.26610699 66.325005
5.4029279 -0.266709 66.475006
5.5610118 -0.26731101 66.625008
5.7176108 -0.26781201 66.75
5.8725619 -0.26821399 66.849998
6.0279508 -0.26861501 66.950005
6.1837778 -0.269016 67.050003
6.3376818 -0.269317 67.125008
6.4895 -0.269517 67.175003
6.6415372 -0.26971799 67.225006
6.7937932 -0.26991901 67.275009
6.9436879 -0.27001899 67.300003
7.0963268 -0.27022001 67.350006
7.2545619 -0.270621 67.450005
7.4132352 -0.27102199 67.550003
7.5807419 -0.27172399 67.725006
7.743309 -0.27222601 67.850006
7.8976989 -0.27242601 67.900002
8.052309 -0.272627 67.950005
8.1980858 -0.27252701 67.925003
8.3437529 -0.27242601 67.900002
8.4893103 -0.27232599 67.875
8.6315765 -0.27212501 67.825005
8.7768602 -0.27202499 67.800003
8.9286165 -0.27212501 67.825005
9.0804834 -0.27222601 67.850006
9.2392597 -0.27252701 67.925003
9.398365 -0.272827 68
9.5613089 -0.273229 68.100006
9.7246904 -0.27362999 68.200005
9.8848906 -0.273931 68.275002
10.041744 -0.274131 68.325005
10.441203 -0.28085199 70.000008
10.605837 -0.28115299 70.075005
10.7708 -0.281454 70.150009
10.939983 -0.28185499 70.250008
11.113553 -0.28235599 70.375
11.279666 -0.282657 70.450005
11.446106 -0.282958 70.525002
11.814374 -0.288174 71.825005
12.13833 -0.29218599 72.825005
12.34846 -0.29339001 73.125008
12.585563 -0.29519501 73.575005
12.863615 -0.29790401 74.25
-1.839646 -0.12899099 70.700005
-1.684235 -0.12894601 70.675003
-1.5067509 -0.12703 69.625
-1.352344 -0.126848 69.525002
-1.19967 -0.126802 69.500008
-1.046728 -0.126711 69.450005
-0.89400601 -0.12661999 69.400002
-0.73134398 -0.124795 68.400002
-0.57922697 -0.124293 68.125
-0.429418 -0.124111 68.025002
-0.28015101 -0.123974 67.950005
-0.131212 -0.123837 67.875
0.017398 -0.1237 67.800003
0.16568001 -0.123564 67.725006
0.31363401 -0.123427 67.650002
0.46125901 -0.12329 67.575005
0.60855502 -0.123153 67.5
0.755804 -0.123062 67.450005
0.90316802 -0.123016 67.425003
1.050033 -0.122925 67.375008
1.1971231 -0.122879 67.350006
1.3441041 -0.122834 67.325005
1.490422 -0.122743 67.275009
1.6359119 -0.122606 67.200005
1.779747 -0.122378 67.075005
1.92088 -0.122013 66.875008
2.0619099 -0.121693 66.700005
2.2038291 -0.121465 66.575005
2.3460829 -0.121283 66.475006
2.4878991 -0.121101 66.375008
2.629277 -0.120918 66.275002
2.770216 -0.120736 66.175003
2.9096169 -0.120508 66.050003
3.0496261 -0.120325 65.949997
3.1916189 -0.120234 65.900002
3.3346591 -0.120188 65.875008
3.478909 -0.120188 65.875008
3.6245339 -0.120234 65.900002
3.7688389 -0.120234 65.900002
3.914628 -0.12028 65.925003
4.0605268 -0.120325 65.949997
4.2049422 -0.120325 65.949997
4.3493562 -0.120325 65.949997
4.4937701 -0.120325 65.949997
4.638185 -0.120325 65.949997
4.7844129 -0.120371 65.975006
4.934485 -0.120508 66.050003
5.0868082 -0.12069 66.150002
5.2435241 -0.120964 66.300003
5.4029279 -0.121283 66.475006
5.5589252 -0.121511 66.599998
5.7154698 -0.121739 66.725006
5.8703661 -0.121922 66.825005
6.0257001 -0.122104 66.925003
6.1814728 -0.122286 67.025009
6.3353219 -0.122423 67.099998
6.4870849 -0.122515 67.150002
6.6390672 -0.122606 67.200005
6.7912669 -0.122697 67.25
6.9462671 -0.122834 67.325005
7.0989609 -0.122925 67.375008
7.2545619 -0.123062 67.450005
7.4159789 -0.12329 67.575005
7.5751448 -0.123472 67.675003
7.7376022 -0.1237 67.800003
7.8947921 -0.123837 67.875
8.0493469 -0.123929 67.925003
8.1980858 -0.123929 67.925003
8.3437529 -0.123883 67.900002
8.4893103 -0.123837 67.875
8.6315765 -0.123746 67.825005
8.7768602 -0.1237 67.800003
8.9253263 -0.1237 67.800003
9.077137 -0.123746 67.825005
9.2324581 -0.123837 67.875
9.3914557 -0.123974 67.950005
9.5542889 -0.124157 68.050003
9.7139959 -0.124293 68.125
9.874032 -0.12443 68.200005
10.027047 -0.124476 68.225006
10.433744 -0.12762301 69.950005
10.605837 -0.12785099 70.075005
10.7708 -0.127988 70.150009
10.939983 -0.12817 70.250008
11.109606 -0.128353 70.350006
11.275663 -0.12849 70.425003
11.442049 -0.128627 70.500008
11.810262 -0.130998 71.800003
12.096662 -0.132412 72.575005
12.276692 -0.13264 72.700005
12.521416 -0.133553 73.200005
12.859283 -0.135423 74.225006
-1.994462 0.025676999 70.700005
-1.838346 0.025659001 70.650009
-1.681852 0.025632 70.575005
-1.505669 0.025269 69.575005
-1.352344 0.025250999 69.525002
-1.19967 0.025242001 69.500008
-1.046728 0.025223 69.450005
-0.89400601 0.025204999 69.400002
-0.72867101 0.024751 68.150002
-0.57837701 0.024706 68.025002
-0.428945 0.024679 67.950005
-0.27984199 0.024651 67.875
-0.131115 0.024633 67.825005
0.017385 0.024606001 67.75
0.165558 0.024579 67.675003
0.31351799 0.024560999 67.625008
0.46125901 0.024542 67.575005
0.60878098 0.024524 67.525009
0.75608402 0.024506001 67.475006
0.90316802 0.024488 67.425003
1.050423 0.024479 67.400002
1.1975681 0.02447 67.375008
1.344604 0.024460999 67.350006
1.490976 0.024443001 67.300003
1.6371289 0.024424 67.25
1.781737 0.024388 67.150002
1.924471 0.024334 67
2.0626831 0.024234001 66.725006
2.2013459 0.024152 66.5
2.3425541 0.024107 66.375008
2.4832129 0.024061 66.25
2.6233261 0.024016 66.125008
2.7628911 0.02397 66
2.9019079 0.023925001 65.875008
3.0415339 0.023889 65.775002
3.1843541 0.023879999 65.75
3.328331 0.023879999 65.75
3.473628 0.023889 65.775002
3.6190341 0.023898 65.800003
3.76455 0.023907 65.825005
3.9101751 0.023916001 65.849998
4.0559101 0.023925001 65.875008
4.20016 0.023925001 65.875008
4.3444099 0.023925001 65.875008
4.4903641 0.023933999 65.900002
4.6346679 0.023933999 65.900002
4.782599 0.023952 65.949997
4.9326172 0.023979999 66.025002
5.0868082 0.024025001 66.150002
5.245501 0.024088999 66.325005
5.4029279 0.024142999 66.475006
5.5589252 0.024188001 66.599998
5.7133288 0.024225 66.700005
5.8681698 0.024261 66.800003
6.0234489 0.024297001 66.900002
6.1768608 0.024325 66.975006
6.3306012 0.024351999 67.050003
6.482254 0.02437 67.099998
6.6365972 0.024397001 67.175003
6.788743 0.024414999 67.225006
6.9411082 0.024434 67.275009
7.0963268 0.024460999 67.350006
7.251873 0.024488 67.425003
7.4104919 0.024524 67.525009
7.5695491 0.024560999 67.625008
7.729043 0.024597 67.725006
7.8889761 0.024633 67.825005
8.0434208 0.024651 67.875
8.1950684 0.024661001 67.900002
8.3406811 0.024651 67.875
8.4861841 0.024642 67.850006
8.6315765 0.024633 67.825005
8.7768602 0.024623999 67.800003
8.9253263 0.024623999 67.800003
9.077137 0.024633 67.825005
9.2324581 0.024651 67.875
9.3914557 0.024679 67.950005
9.5507793 0.024706 68.025002
9.7104321 0.024733 68.100006
9.8667927 0.024751 68.150002
10.023374 0.024769001 68.200005
10.180172 0.024788 68.25
10.605837 0.025450001 70.075005
10.7708 0.025478 70.150009
10.939983 0.025513999 70.250008
11.105659 0.025541 70.325005
11.271661 0.025567999 70.400009
11.433933 0.025587 70.450005
11.604651 0.025622999 70.550003
11.996655 0.026141001 71.975006
12.234475 0.026312999 72.450005
12.405951 0.02634 72.525002
12.712024 0.026649 73.375008
-2.3089819 0.180729 70.850006
-2.1515579 0.180538 70.775002
-1.993757 0.180283 70.675003
-1.837695 0.18015499 70.625
-1.6812561 0.17996401 70.550003
-1.50621 0.17754 69.600006
-1.352344 0.177349 69.525002
-1.1992379 0.177222 69.474998
-1.046351 0.177094 69.425003
-0.89400601 0.17703 69.400002
-0.72786897 0.17365 68.075005
-0.57752597 0.17326801 67.925003
-0.42847201 0.17314 67.875
-0.279533 0.172949 67.800003
-0.130922 0.172758 67.725006
0.017366 0.17263 67.675003
0.165436 0.172502 67.625008
0.313402 0.17243899 67.600006
0.461088 0.17231099 67.550003
0.60855502 0.17218401 67.5
0.755804 0.172056 67.450005
0.90283298 0.171929 67.400002
1.050033 0.171865 67.375008
1.1975681 0.171865 67.375008
1.344604 0.171801 67.350006
1.490976 0.171673 67.300003
1.6371289 0.171546 67.25
1.7824 0.17135499 67.175003
1.925189 0.170972 67.025009
2.061137 0.17007899 66.675003
2.1963811 0.16925 66.349998
2.3363769 0.16886701 66.200005
2.477591 0.168612 66.099998
2.6173749 0.168294 65.975006
2.754519 0.16784699 65.800003
2.8930981 0.167528 65.675003
3.033442 0.167337 65.599998
3.1770899 0.167337 65.599998
3.3220041 0.167401 65.625008
3.467026 0.167464 65.650002
3.613534 0.167592 65.699997
3.7602601 0.16772 65.75
3.9057209 0.16778301 65.775002
4.0512919 0.16784699 65.800003
4.1969719 0.16791099 65.825005
4.3411131 0.16791099 65.825005
4.4852529 0.16791099 65.825005
4.6329098 0.168038 65.875008
4.780787 0.168166 65.925003
4.9307489 0.168357 66
5.0906529 0.16886701 66.200005
5.249455 0.169314 66.375008
5.4049602 0.169633 66.5
5.5589252 0.169888 66.599998
5.7111869 0.17007899 66.675003
5.8659739 0.170334 66.775009
6.0189481 0.170526 66.849998
6.1722488 0.170717 66.925003
6.3235202 0.170844 66.975006
6.4774251 0.17103601 67.050003
6.6291881 0.17116299 67.099998
6.7836938 0.17135499 67.175003
6.9359498 0.171482 67.225006
7.0910592 0.171673 67.300003
7.2464962 0.171865 67.375008
7.4022608 0.172056 67.450005
7.5611539 0.17231099 67.550003
7.7204838 0.172566 67.650002
7.8802519 0.172821 67.75
8.0345345 0.172949 67.800003
8.1890345 0.173076 67.850006
8.3376083 0.173076 67.850006
8.4861841 0.173076 67.850006
8.6315765 0.173013 67.825005
8.7768602 0.172949 67.800003
8.9253263 0.172949 67.800003
9.077137 0.173013 67.825005
9.2324581 0.17314 67.875
9.3914557 0.17333101 67.950005
9.5507793 0.17352299 68.025002
9.7068663 0.17365 68.075005
9.8667927 0.173842 68.150002
10.023374 0.173969 68.200005
10.176443 0.174033 68.225006
10.54908 0.17779499 69.700005
10.766961 0.17888001 70.125
10.932197 0.17907099 70.200005
11.097762 0.179262 70.275002
11.263655 0.179454 70.350006
11.429877 0.179645 70.425003
11.596427 0.179836 70.500008
11.93415 0.182642 71.599998
12.192258 0.184173 72.200005
12.384569 0.184683 72.400002
12.560431 0.184938 72.5
-2.6183469 0.33560801 70.825005
-2.4632571 0.33560801 70.825005
-2.307353 0.335489 70.800003
-2.1507981 0.33525199 70.750008
-1.993757 0.33489701 70.675003
-1.837045 0.33454099 70.600006
-1.680065 0.334068 70.500008
-1.514325 0.33158001 69.974998
-1.352344 0.329447 69.525002
-1.198807 0.329092 69.450005
-1.046351 0.32897401 69.425003
-0.89368403 0.32873699 69.375
-0.72947299 0.32328701 68.225006
-0.57688898 0.32150999 67.850006
-0.42799801 0.32127401 67.800003
-0.27912 0.32080001 67.700005
-0.130777 0.32056299 67.650002
0.017347001 0.320326 67.600006
0.165252 0.32008901 67.550003
0.313054 0.31997001 67.525009
0.460747 0.31985199 67.5
0.60833001 0.31973299 67.475006
0.755243 0.31937799 67.400002
0.90249801 0.31926 67.375008
1.049643 0.319141 67.350006
1.196679 0.31902301 67.325005
1.343605 0.31890401 67.300003
1.490422 0.318786 67.275009
1.636521 0.31854901 67.225006
1.781074 0.318075 67.125008
1.919444 0.31665301 66.825005
2.0487721 0.31404701 66.275002
2.1881051 0.313218 66.099998
2.331084 0.31298101 66.050003
2.4719689 0.312507 65.949997
2.6104319 0.31179601 65.800003
2.7450991 0.31073001 65.575005
2.8853891 0.31037501 65.5
3.0288179 0.31037501 65.5
3.1722469 0.31037501 65.5
3.316941 0.31049299 65.525002
3.4630661 0.31073001 65.575005
3.6094091 0.310967 65.625008
3.7545409 0.311086 65.650002
3.901268 0.31132299 65.699997
4.0466738 0.311441 65.725006
4.1921902 0.31155899 65.75
4.3378148 0.31167799 65.775002
4.4818459 0.31167799 65.775002
4.6293941 0.31191501 65.825005
4.7789741 0.31226999 65.900002
4.9326172 0.31286299 66.025002
5.0964198 0.31404701 66.275002
5.2514319 0.31463999 66.400002
5.406991 0.31523201 66.525002
5.5589252 0.31558701 66.599998
5.7111869 0.315943 66.675003
5.8615808 0.31617999 66.725006
6.0144458 0.316535 66.800003
6.1653318 0.31677201 66.849998
6.3164382 0.317009 66.900002
6.4701791 0.31736401 66.975006
6.621778 0.317601 67.025009
6.7735949 0.31783801 67.075005
6.925632 0.318075 67.125008
7.0805221 0.31843001 67.200005
7.2357402 0.318786 67.275009
7.3912868 0.319141 67.350006
7.5471621 0.31949699 67.425003
7.7062192 0.31997001 67.525009
7.8686209 0.32056299 67.650002
8.0256453 0.32091799 67.725006
8.1829987 0.32127401 67.800003
8.3345366 0.321392 67.825005
8.4830561 0.321392 67.825005
8.6315765 0.321392 67.825005
8.7800961 0.321392 67.825005
8.9286165 0.321392 67.825005
9.0804834 0.32150999 67.850006
9.2358589 0.321747 67.900002
9.3914557 0.32198399 67.950005
9.5507793 0.32234001 68.025002
9.7104321 0.32269499 68.100006
9.8667927 0.322932 68.150002
10.027047 0.32328701 68.225006
10.180172 0.32340601 68.25
10.340974 0.32376099 68.325005
10.751607 0.331817 70.025002
10.924411 0.33240899 70.150009
11.089865 0.332764 70.224998
11.259653 0.33323801 70.325005
11.421762 0.33347499 70.375
11.592315 0.333949 70.475006
11.83831 0.336555 71.025002
12.175371 0.341649 72.099998
12.354634 0.342242 72.225006
12.54744 0.343189 72.425003
-2.924391 0.48985699 70.725006
-2.76952 0.48985699 70.725006
-2.6155739 0.49002999 70.750008
-2.460649 0.49002999 70.750008
-2.305723 0.49002999 70.750008
-2.1492779 0.48968399 70.700005
-1.992347 0.48916501 70.625
-1.835744 0.48864499 70.550003
-1.6788729 0.48795301 70.450005
-1.520277 0.48656699 70.250008
-1.3528301 0.48171899 69.550003
-1.198807 0.48102599 69.450005
-1.046351 0.48085299 69.425003
-0.89368403 0.48050699 69.375
-0.73134398 0.47375399 68.400002
-0.57625097 0.46942499 67.775002
-0.42720899 0.468732 67.675003
-0.27870801 0.46821299 67.600006
-0.130536 0.467693 67.525009
0.017321 0.46752 67.5
0.165069 0.467347 67.475006
0.31270701 0.46717399 67.450005
0.460235 0.46700099 67.425003
0.60742903 0.466654 67.375008
0.74992102 0.46353799 66.925003
0.89680499 0.46371099 66.950005
1.0473059 0.465442 67.200005
1.195346 0.46578899 67.25
1.342108 0.46561599 67.225006
1.48876 0.465442 67.200005
1.633478 0.46474999 67.099998
1.773777 0.463018 66.849998
1.905082 0.459382 66.325005
2.041044 0.457304 66.025002
2.18314 0.45678499 65.949997
2.3257899 0.456438 65.900002
2.466347 0.455746 65.800003
2.5975389 0.453495 65.475006
2.736727 0.452802 65.375
2.8798821 0.452802 65.375
3.024194 0.452975 65.400002
3.1686139 0.45314801 65.425003
3.3131449 0.45332101 65.449997
3.459105 0.453668 65.5
3.605284 0.454014 65.550003
3.750252 0.45418701 65.575005
3.8968151 0.45453399 65.625008
4.0420561 0.454707 65.650002
4.187407 0.45488 65.675003
4.3328691 0.455053 65.699997
4.4784389 0.455226 65.725006
4.627635 0.455746 65.800003
4.7771611 0.456265 65.875008
4.934485 0.457477 66.050003
5.100265 0.459382 66.325005
5.2553868 0.46024799 66.450005
5.406991 0.460767 66.525002
5.5589252 0.46128699 66.599998
5.7090459 0.461633 66.650002
5.859385 0.461979 66.700005
6.009944 0.46232599 66.75
6.1607218 0.462672 66.800003
6.311718 0.463018 66.849998
6.4605179 0.463191 66.875008
6.6118979 0.46353799 66.925003
6.7634969 0.463884 66.975006
6.9178939 0.464403 67.050003
7.0699849 0.46474999 67.099998
7.2222962 0.465096 67.150002
7.3775692 0.46561599 67.225006
7.5331702 0.466135 67.300003
7.6948061 0.46700099 67.425003
7.8569899 0.46786699 67.550003
8.016758 0.468559 67.650002
8.1769638 0.46925199 67.75
8.3314638 0.469598 67.800003
8.4830561 0.469771 67.825005
8.6347589 0.469944 67.850006
8.7833338 0.469944 67.850006
8.9319077 0.469944 67.850006
9.0838289 0.47011799 67.875
9.2392597 0.47046399 67.925003
9.398365 0.470983 68
9.5542889 0.47132999 68.050003
9.7139959 0.47184899 68.125
9.8704128 0.472195 68.175003
10.030721 0.47271499 68.25
10.187631 0.473061 68.300003
10.348542 0.47358099 68.375
10.670999 0.48137301 69.500008
10.912731 0.48535499 70.075005
11.078022 0.48587501 70.150009
11.247644 0.48656699 70.250008
11.409589 0.48691401 70.300003
11.588202 0.48795301 70.450005
11.859146 0.49280101 71.150002
12.150041 0.49834201 71.949997
12.333252 0.49938101 72.099998
12.634063 0.50509501 72.925003
-2.923357 0.64435297 70.700005
-2.7685411 0.64435297 70.700005
-2.6137249 0.64435297 70.700005
-2.45891 0.64435297 70.700005
-2.3040941 0.64435297 70.700005
-2.1485181 0.64412498 70.675003
-1.991641 0.64344198 70.600006
-1.834442 0.64253002 70.500008
-1.677682 0.64161903 70.400009
-1.51649 0.63865697 70.075005
-1.352344 0.63364398 69.525002
-1.198807 0.63296098 69.450005
-1.045975 0.632505 69.400002
-0.892717 0.631594 69.300003
-0.72706699 0.61974603 68
-0.57561302 0.61701101 67.700005
-0.42642 0.61564398 67.550003
-0.278193 0.61496103 67.475006
-0.130294 0.61427701 67.400002
0.017289 0.61404902 67.375008
0.16482399 0.61404902 67.375008
0.31235901 0.61404902 67.375008
0.45903999 0.61290997 67.25
0.60134298 0.607898 66.700005
0.74683899 0.60744202 66.650002
0.893121 0.60767001 66.675003
1.039903 0.60812497 66.725006
1.1891249 0.60971999 66.900002
1.337117 0.61040401 66.975006
1.483776 0.61040401 66.975006
1.626175 0.60880899 66.800003
1.749233 0.60083401 65.925003
1.890003 0.59969503 65.800003
2.0340879 0.59969503 65.800003
2.178174 0.59969503 65.800003
2.3204961 0.59923899 65.75
2.4476049 0.59513801 65.300003
2.5866289 0.59422702 65.200005
2.7314939 0.59468198 65.25
2.8754771 0.59491003 65.275002
3.0195689 0.59513801 65.300003
3.1649821 0.59559399 65.349998
3.3106141 0.59604901 65.400002
3.4564641 0.59650499 65.449997
3.6011591 0.59673297 65.475006
3.7473919 0.59718901 65.525002
3.8908761 0.59718901 65.525002
4.0359001 0.597417 65.550003
4.1810322 0.59764397 65.575005
4.326273 0.59787202 65.599998
4.4750319 0.59855598 65.675003
4.6241188 0.59923899 65.75
4.7753482 0.600151 65.849998
4.934485 0.601973 66.050003
5.1041098 0.604936 66.375008
5.2573638 0.605847 66.475006
5.4090238 0.60653001 66.550003
5.5589252 0.60698599 66.599998
5.7090459 0.60744202 66.650002
5.8571892 0.60767001 66.675003
6.0076928 0.60812497 66.725006
6.1561098 0.60835302 66.75
6.3069968 0.60880899 66.800003
6.455688 0.60903698 66.825005
6.6044879 0.60926503 66.849998
6.7559228 0.60971999 66.900002
6.907577 0.61017603 66.950005
7.0594492 0.610632 67
7.2142291 0.61131501 67.075005
7.369338 0.61199898 67.150002
7.5275741 0.61290997 67.25
7.6862469 0.61382198 67.350006
7.8511739 0.61518902 67.5
8.0137949 0.616328 67.625008
8.1769638 0.61746699 67.75
8.3314638 0.61792302 67.800003
8.4861841 0.618379 67.850006
8.6379404 0.61860597 67.875
8.7865696 0.61860597 67.875
8.9384899 0.61883402 67.900002
9.0905209 0.61906201 67.925003
9.2426596 0.61928999 67.950005
9.4018211 0.619973 68.025002
9.5577984 0.62042898 68.075005
9.7175608 0.621113 68.150002
9.874032 0.62156802 68.200005
10.034396 0.62225199 68.275002
10.198817 0.62316298 68.375
10.359893 0.62384701 68.450005
10.536652 0.62544203 68.625
10.893265 0.63751799 69.950005
11.066178 0.63865697 70.075005
11.235636 0.63956797 70.175003
11.397416 0.64002401 70.224998
11.58409 0.64184701 70.425003
11.859146 0.64845401 71.150002
12.120488 0.65415102 71.775002
12.307593 0.65574598 71.949997
12.668713 0.66645402 73.125008
12.841996 0.66713798 73.200005
-3.236418 0.79987001 70.775002
-3.0792611 0.79930502 70.725006
-2.922323 0.79873902 70.675003
-2.765604 0.79817402 70.625
-2.610029 0.79789197 70.600006
-2.4545619 0.79760897 70.575005
-2.3008349 0.79789197 70.600006
-2.145478 0.79760897 70.575005
-1.990231 0.79732698 70.550003
-1.833141 0.796197 70.450005
-1.674107 0.79393601 70.250008
-1.5067509 0.78687298 69.625
-1.351858 0.78546 69.500008
-1.198375 0.78461301 69.425003
-1.045221 0.78376502 69.350006
-0.87661499 0.76907301 68.050003
-0.725196 0.76652998 67.825005
-0.57412499 0.76313901 67.525009
-0.42515701 0.76116198 67.350006
-0.27716199 0.759749 67.225006
-0.129907 0.75946599 67.200005
0.017244 0.75946599 67.200005
0.164335 0.759184 67.175003
0.311084 0.75833601 67.099998
0.454945 0.75325102 66.650002
0.60021597 0.75240302 66.575005
0.74599898 0.75240302 66.575005
0.89211702 0.75268501 66.599998
1.038344 0.75296801 66.625008
1.185125 0.75353301 66.675003
1.332126 0.754098 66.725006
1.4776829 0.75381601 66.700005
1.606699 0.74590498 66
1.739946 0.74110103 65.575005
1.882103 0.74053597 65.525002
2.027133 0.74110103 65.575005
2.1674161 0.73997098 65.475006
2.2984381 0.73601598 65.125
2.439172 0.73545098 65.075005
2.5826621 0.73573297 65.100006
2.727308 0.73629802 65.150002
2.8721731 0.73686302 65.200005
3.017257 0.73742801 65.25
3.1637709 0.738276 65.325005
3.3093481 0.738841 65.375
3.4551439 0.73940599 65.425003
3.5997839 0.73968899 65.449997
3.7445331 0.73997098 65.475006
3.887908 0.73997098 65.475006
4.031281 0.73997098 65.475006
4.1746559 0.73997098 65.475006
4.3196788 0.74025398 65.5
4.4682178 0.74110103 65.575005
4.6223612 0.74279702 65.725006
4.7735348 0.743927 65.825005
4.9363518 0.74675202 66.075005
5.1060328 0.75042498 66.400002
5.2573638 0.75127298 66.475006
5.4090238 0.75212002 66.550003
5.5589252 0.75268501 66.599998
5.7090459 0.75325102 66.650002
5.8571892 0.75353301 66.675003
6.0054421 0.75381601 66.700005
6.1538038 0.754098 66.725006
6.3022761 0.754381 66.75
6.4508581 0.75466299 66.775009
6.5995488 0.75494599 66.800003
6.750874 0.75551099 66.849998
6.8998389 0.75579298 66.875008
7.0541811 0.75664097 66.950005
7.206162 0.75720602 67
7.3638511 0.75833601 67.099998
7.521976 0.75946599 67.200005
7.683393 0.76087898 67.325005
7.8511739 0.76285702 67.5
8.016758 0.764552 67.650002
8.1769638 0.76568198 67.75
8.3345366 0.76652998 67.825005
8.4893103 0.76709503 67.875
8.6411219 0.76737797 67.900002
8.7898054 0.76737797 67.900002
8.941782 0.76766002 67.925003
9.0938663 0.76794302 67.950005
9.2460604 0.76822501 67.975006
9.4018211 0.76879001 68.025002
9.5613089 0.769638 68.100006
9.7175608 0.77020299 68.150002
9.8812704 0.77133298 68.25
10.041744 0.77218097 68.325005
10.206275 0.77331102 68.425003
10.375028 0.77472401 68.550003
10.548167 0.77641898 68.700005
10.725856 0.77839702 68.875
11.054334 0.79111099 70.000008
11.219625 0.79195899 70.075005
11.381186 0.79252398 70.125
11.54708 0.79337102 70.200005
11.825809 0.80184698 70.950005
12.065606 0.80749798 71.450005
12.269106 0.810606 71.725006
12.452153 0.81230098 71.875008
12.833224 0.826711 73.150002
-3.237561 0.95503998 70.800003
-3.078172 0.95369101 70.700005
-2.9202559 0.95267898 70.625
-2.761688 0.95133001 70.525002
-2.6044829 0.95031899 70.450005
-2.445868 0.948632 70.325005
-2.2877989 0.94694602 70.200005
-2.127238 0.94391102 69.974998
-1.9683681 0.94121301 69.775002
-1.8142771 0.940539 69.724998
-1.659809 0.93952698 69.650002
-1.505128 0.938178 69.550003
-1.351372 0.93716699 69.474998
-1.195786 0.93446898 69.275002
-1.024874 0.91727 68
-0.87468302 0.91592097 67.900002
-0.72252297 0.91153699 67.575005
-0.57157499 0.90681601 67.225006
-0.42310601 0.904118 67.025009
-0.27592501 0.90276903 66.925003
-0.129327 0.90243202 66.900002
0.017154999 0.901757 66.849998
0.163417 0.90108299 66.800003
0.30899799 0.899059 66.650002
0.454092 0.89737302 66.525002
0.59954 0.89703602 66.5
0.74543899 0.89737302 66.525002
0.89178199 0.89804798 66.575005
1.037565 0.89804798 66.575005
1.183792 0.89838499 66.599998
1.330129 0.89872199 66.625008
1.464391 0.89164001 66.099998
1.592093 0.88219798 65.400002
1.733313 0.88118601 65.325005
1.874923 0.880512 65.275002
2.0139949 0.87882501 65.150002
2.152519 0.87713897 65.025002
2.2922609 0.87612802 64.950005
2.4344859 0.87612802 64.950005
2.577703 0.87646502 64.975006
2.722075 0.87713897 65.025002
2.867768 0.878151 65.100006
3.014945 0.87949997 65.200005
3.1625609 0.880849 65.300003
3.3093481 0.88186002 65.375
3.4551439 0.88253498 65.425003
3.5997839 0.88287199 65.449997
3.743103 0.88287199 65.449997
3.884938 0.88253498 65.425003
4.0266638 0.88219798 65.400002
4.1698742 0.88219798 65.400002
4.3130841 0.88219798 65.400002
4.4579968 0.88253498 65.425003
4.610054 0.88422102 65.550003
4.7735348 0.88793099 65.825005
4.941956 0.89231497 66.150002
5.107955 0.89602399 66.425003
5.2573638 0.89669901 66.475006
5.4090238 0.89771098 66.550003
5.5589252 0.89838499 66.599998
5.7069039 0.89872199 66.625008
5.8549929 0.899059 66.650002
6.003191 0.89939702 66.675003
6.1514988 0.89973402 66.700005
6.2999158 0.90007102 66.725006
6.448442 0.90040803 66.75
6.5946088 0.90040803 66.75
6.7458248 0.90108299 66.800003
6.89468 0.90142 66.825005
7.048913 0.90243202 66.900002
7.203474 0.90344298 66.975006
7.3611059 0.90479201 67.075005
7.521976 0.906479 67.200005
7.6919532 0.90917599 67.400002
7.8628049 0.911874 67.600006
8.0226831 0.91322303 67.700005
8.1829987 0.914572 67.800003
8.3376083 0.91524702 67.850006
8.4924374 0.91592097 67.900002
8.6443033 0.91625798 67.925003
8.7930422 0.91625798 67.925003
8.941782 0.91625798 67.925003
9.0905209 0.91625798 67.925003
9.2426596 0.91659498 67.950005
9.398365 0.91727 68
9.5577984 0.91828197 68.075005
9.7211256 0.919631 68.175003
9.8812704 0.92064202 68.25
10.049093 0.922328 68.375
10.217463 0.92401499 68.500008
10.386379 0.92570102 68.625
10.555844 0.927387 68.750008
10.721963 0.92873597 68.850006
10.927999 0.93345702 69.200005
11.203614 0.94391102 69.974998
11.364957 0.94458598 70.025002
11.522407 0.94492298 70.050003
11.6883 0.94593501 70.125
11.993837 0.95807499 71.025002
12.217789 0.963471 71.425003
12.426167 0.96751702 71.725006
12.609541 0.96954101 71.875008
-3.557652 1.113063 71
-3.397388 1.111495 70.900002
-3.237561 1.109928 70.800003
-3.078172 1.1083601 70.700005
-2.917155 1.1060081 70.550003
-2.757772 1.104049 70.425003
-2.598938 1.102089 70.300003
-2.44152 1.100521 70.200005
-2.280467 1.096994 69.974998
-2.1211579 1.093859 69.775002
-1.920411 1.0672081 68.075005
-1.7693909 1.0660321 68
-1.619297 1.065248 67.950005
-1.470503 1.065248 67.950005
-1.321709 1.065248 67.950005
-1.172915 1.065248 67.950005
-1.023744 1.0648561 67.925003
-0.87274998 1.062113 67.75
-0.71851403 1.053491 67.200005
-0.56902403 1.049179 66.925003
-0.42184299 1.047612 66.825005
-0.275204 1.046436 66.75
-0.128941 1.045652 66.700005
0.017097 1.044476 66.625008
0.162745 1.042909 66.525002
0.30807 1.041733 66.450005
0.45340899 1.0413409 66.425003
0.59908903 1.041733 66.450005
0.74487799 1.042125 66.475006
0.89077699 1.0425169 66.5
1.036786 1.042909 66.525002
1.182459 1.042909 66.525002
1.327135 1.042125 66.475006
1.443344 1.021353 65.150002
1.586007 1.021353 65.150002
1.728006 1.020961 65.125
1.8677419 1.019393 65.025002
2.00704 1.017825 64.925003
2.1475539 1.017042 64.875
2.2887321 1.01665 64.850006
2.430738 1.01665 64.850006
2.573735 1.017042 64.875
2.7178891 1.017825 64.925003
2.863363 1.019001 65
3.0126331 1.021353 65.150002
3.1625609 1.0237041 65.300003
3.3093481 1.0248801 65.375
3.4551439 1.025664 65.425003
3.5997839 1.0260561 65.449997
3.741673 1.025664 65.425003
3.8834541 1.025272 65.400002
4.025125 1.0248801 65.375
4.165092 1.024096 65.325005
4.306489 1.0237041 65.300003
4.4477758 1.023312 65.275002
4.588954 1.02292 65.25
4.7626572 1.029583 65.675003
4.9400878 1.036638 66.125008
5.1060328 1.040949 66.400002
5.2553868 1.041733 66.450005
5.406991 1.042909 66.525002
5.5547519 1.043301 66.550003
5.7047629 1.044084 66.599998
5.852797 1.044476 66.625008
6.0009398 1.044868 66.650002
6.1491928 1.04526 66.675003
6.297555 1.045652 66.700005
6.4436121 1.045652 66.700005
6.5921402 1.046044 66.725006
6.7407751 1.046436 66.75
6.8920999 1.04722 66.800003
7.046278 1.048396 66.875008
7.2007852 1.049571 66.950005
7.3583632 1.051139 67.050003
7.5331702 1.055058 67.300003
7.7090721 1.058977 67.550003
7.8715291 1.060937 67.675003
8.0286074 1.062113 67.75
8.1860161 1.063289 67.825005
8.3406811 1.064072 67.875
8.4924374 1.064464 67.900002
8.6411219 1.064464 67.900002
8.7898054 1.064464 67.900002
8.9351988 1.064072 67.875
9.0838289 1.064072 67.875
9.2358589 1.064464 67.900002
9.3949099 1.06564 67.975006
9.5542889 1.066816 68.050003
9.7175608 1.0683841 68.150002
9.8848906 1.070343 68.275002
10.049093 1.071911 68.375
10.221191 1.074262 68.525002
10.390162 1.0762219 68.650002
10.559683 1.078182 68.775002
10.725856 1.079749 68.875
10.908259 1.082885 69.075005
11.187603 1.095426 69.875
11.348727 1.09621 69.925003
11.505959 1.096602 69.950005
11.667465 1.097386 70.000008
11.829191 1.09817 70.050003
11.98686 1.098562 70.075005
12.14897 1.099346 70.125
12.552526 1.121685 71.550003
-3.560158 1.269281 71.050003
-3.3997841 1.267495 70.950005
-3.2387049 1.265262 70.825005
-3.0770841 1.2625819 70.675003
-2.9140539 1.259009 70.475006
-2.752877 1.255883 70.300003
-2.594316 1.25365 70.175003
-2.4345641 1.250524 70.000008
-2.2723191 1.245611 69.724998
-2.0702381 1.216581 68.100006
-1.91759 1.214348 67.975006
-1.766789 1.213008 67.900002
-1.6181051 1.213008 67.900002
-1.468879 1.212561 67.875
-1.3207361 1.213008 67.900002
-1.17162 1.212561 67.875
-1.022614 1.212115 67.850006
-0.86856401 1.204522 67.425003
-0.71530598 1.195143 66.900002
-0.56774902 1.19291 66.775009
-0.42089599 1.191124 66.675003
-0.27468801 1.19023 66.625008
-0.12865099 1.1888911 66.550003
0.017058 1.187551 66.475006
0.16231699 1.185318 66.349998
0.30725899 1.183978 66.275002
0.451361 1.181298 66.125008
0.586918 1.162987 65.100006
0.72863102 1.161647 65.025002
0.87035 1.160754 64.975006
1.0114599 1.1594141 64.900002
1.153131 1.158967 64.875
1.296689 1.160307 64.950005
1.43836 1.159861 64.925003
1.579312 1.158967 64.875
1.721373 1.158967 64.875
1.861997 1.158074 64.825005
2.0024021 1.157181 64.775002
2.1434159 1.156734 64.75
2.285203 1.156734 64.75
2.42699 1.156734 64.75
2.5687771 1.156734 64.75
2.7116101 1.157181 64.775002
2.855654 1.158074 64.825005
3.0045409 1.160754 64.975006
3.1625609 1.1665601 65.300003
3.3106141 1.168346 65.400002
3.4564641 1.169239 65.449997
3.5997839 1.169239 65.449997
3.741673 1.168793 65.425003
3.881969 1.1679 65.375
4.0220461 1.167006 65.325005
4.1619039 1.166113 65.275002
4.3015432 1.16522 65.225006
4.4409618 1.164327 65.175003
4.580163 1.163433 65.125
4.7227721 1.163433 65.125
4.9158082 1.175492 65.800003
5.0964198 1.183978 66.275002
5.2534089 1.186657 66.425003
5.4029279 1.187551 66.475006
5.5526652 1.188444 66.525002
5.70048 1.1888911 66.550003
5.8484039 1.189337 66.575005
5.996438 1.189784 66.599998
6.1445818 1.19023 66.625008
6.2928352 1.190677 66.650002
6.4411969 1.191124 66.675003
6.5896702 1.19157 66.700005
6.7382512 1.192017 66.725006
6.8895211 1.19291 66.775009
7.0410099 1.193803 66.825005
7.1954069 1.195143 66.900002
7.369338 1.199609 67.150002
7.5555558 1.205862 67.5
7.7147779 1.207648 67.600006
7.8744369 1.209435 67.700005
8.0286074 1.210328 67.75
8.1860161 1.211668 67.825005
8.3406811 1.212561 67.875
8.4924374 1.213008 67.900002
8.6411219 1.213008 67.900002
8.7865696 1.212561 67.875
8.9286165 1.211668 67.825005
9.0737925 1.211221 67.800003
9.2256575 1.211668 67.825005
9.3810892 1.212561 67.875
9.5472689 1.214794 68
9.7139959 1.2170269 68.125
9.8812704 1.21926 68.25
10.052767 1.22194 68.400002
10.221191 1.2241729 68.525002
10.393948 1.226853 68.675003
10.56352 1.229086 68.800003
10.729749 1.230872 68.900002
10.924051 1.235785 69.175003
11.167589 1.246057 69.750008
11.32844 1.246951 69.800003
11.493621 1.2482899 69.875
11.650799 1.248737 69.900009
11.816526 1.250077 69.974998
11.978308 1.25097 70.025002
12.140308 1.251863 70.075005
12.302526 1.252757 70.125
12.464965 1.25365 70.175003
-3.7209699 1.426721 71.150002
-3.56141 1.425217 71.075005
-3.4009819 1.4232121 70.975006
-3.2387049 1.420204 70.825005
-3.0749071 1.416194 70.625
-2.908885 1.410679 70.350006
-2.747004 1.406669 70.150009
-2.587847 1.403661 70.000008
-2.426739 1.3991489 69.775002
-2.225064 1.369071 68.275002
-2.066438 1.363055 67.975006
-1.9147691 1.36105 67.875
-1.764838 1.360047 67.825005
-1.616318 1.360047 67.825005
-1.468338 1.360549 67.850006
-1.3197629 1.360549 67.850006
-1.171188 1.360549 67.850006
-1.0214829 1.359045 67.775002
-0.862445 1.342502 66.950005
-0.71370202 1.338491 66.75
