ply
format ascii 1.0
comment PCL generated
element vertex 1621
property float x
property float y
property float z
element face 0
element camera 0
property float view_px
property float view_py
property float view_pz
property float x_axisx
property float x_axisy
property float x_axisz
property float y_axisx
property float y_axisy
property float y_axisz
property float z_axisx
property float z_axisy
property float z_axisz
property float focal
property float scalex
property float scaley
property float centerx
property float centery
property int viewportx
property int viewporty
property float k1
property float k2
end_header
-1.868078 2.5765431 61.450005
-1.730697 2.57235 61.350006
-1.581394 2.5482409 60.775005
-1.441162 2.5356619 60.475002
-1.306031 2.530421 60.350002
-1.171448 2.5251789 60.225002
-1.037412 2.519938 60.100002
-0.90392399 2.5146971 59.975006
-0.77098298 2.5094559 59.850002
-0.63885701 2.5052631 59.750004
-0.50738102 2.5021181 59.675003
-0.37639201 2.5000219 59.625008
-0.24562199 2.497926 59.575005
-0.115119 2.496877 59.550007
0.015275 2.4958291 59.525002
0.14562 2.4958291 59.525002
0.27596501 2.4958291 59.525002
0.40614 2.494781 59.500004
0.53620499 2.4937329 59.475006
0.666161 2.4926839 59.450001
0.79600698 2.491636 59.425003
0.92574298 2.4905879 59.400005
1.05537 2.4895401 59.375
1.184888 2.488492 59.350002
1.31485 2.488492 59.350002
1.4448121 2.488492 59.350002
1.575438 2.4895401 59.375
1.706172 2.4905879 59.400005
1.836244 2.4905879 59.400005
1.965488 2.4895401 59.375
2.095505 2.4895401 59.375
2.2245851 2.488492 59.350002
2.354547 2.488492 59.350002
2.484509 2.488492 59.350002
2.615571 2.4895401 59.375
2.7467451 2.4905879 59.400005
2.878027 2.491636 59.425003
3.009418 2.4926839 59.450001
3.14224 2.494781 59.500004
3.275281 2.496877 59.550007
3.40997 2.5000219 59.625008
3.544987 2.503166 59.700001
3.683413 2.5084081 59.825005
3.8207901 2.5126009 59.925003
3.9602549 2.5178421 60.050003
4.0968599 2.520987 60.125004
4.2355518 2.5251789 60.225002
4.371057 2.527276 60.275002
4.508647 2.530421 60.350002
4.6465659 2.533565 60.425003
4.7848139 2.53671 60.5
4.9233899 2.539855 60.575001
5.0643811 2.5440481 60.675003
5.212234 2.5513849 60.849998
5.3762279 2.566061 61.200005
5.5350008 2.5775909 61.475002
5.6834502 2.5838799 61.625004
5.8349171 2.591218 61.800003
5.9943948 2.6017001 62.050003
6.2142458 2.6373401 62.900002
6.39995 2.6572559 63.375004
6.572257 2.6708829 63.700001
6.7301831 2.678221 63.875
6.8915648 2.6866069 64.075005
7.1663108 2.7379701 65.300003
7.4268332 2.7819951 66.349998
7.60636 2.794574 66.650002
7.763938 2.7987671 66.75
7.9219551 2.8029599 66.849998
8.1769638 2.8406961 67.75
8.356041 2.8511779 68
8.511198 2.8532751 68.050003
8.6665735 2.855371 68.100006
8.8254061 2.858516 68.175003
9.211647 2.9339881 69.974998
9.4150629 2.949712 70.350006
9.6065168 2.961242 70.625
9.7784472 2.9664831 70.750008
9.950922 2.971724 70.875
10.127509 2.978014 71.025002
10.308372 2.9853511 71.200005
10.482656 2.990592 71.325005
10.653755 2.9947851 71.425003
10.817727 2.996882 71.475006
10.981915 2.9989779 71.525002
11.142432 3.000026 71.550003
11.307004 3.0021231 71.599998
-9.3889494 3.2679501 74.075005
-9.2205162 3.265744 74.025002
-9.0523014 3.2635379 73.975006
-8.8662777 3.254715 73.775009
-8.5867386 3.210598 72.775009
-8.2710476 3.151041 71.425003
-8.108964 3.148834 71.375
-7.8161802 3.0947919 70.150009
-7.6489139 3.089277 70.025002
-7.4929008 3.0881741 70.000008
-7.3317542 3.0848651 69.925003
-7.1606688 3.0771451 69.750008
-6.9074621 3.0330279 68.750008
-6.6094918 2.9668529 67.25
-6.4526219 2.962441 67.150002
-6.2985382 2.959132 67.075005
-6.142488 2.954721 66.975006
-5.9846382 2.9492061 66.849998
-5.820786 2.940383 66.650002
-5.6258821 2.9150159 66.075005
-5.46875 2.9083979 65.925003
-5.3183331 2.9050889 65.849998
-5.1702089 2.902884 65.800003
-5.0223041 2.9006779 65.75
-4.8746181 2.8984721 65.699997
-4.7037492 2.881928 65.325005
-4.4786701 2.830091 64.150009
-4.334816 2.8278849 64.100006
-4.1944528 2.8278849 64.100006
-4.0509262 2.8256791 64.050003
-3.878618 2.8025179 63.525002
-3.7071371 2.778254 62.975002
-3.564986 2.774945 62.900002
-3.4231639 2.771636 62.825001
-3.2790551 2.7661221 62.700005
-3.135494 2.760607 62.575001
-2.993679 2.7561951 62.475002
-2.847728 2.7473719 62.275005
-2.699388 2.73524 62
-2.558454 2.7297249 61.875004
-2.4190471 2.7253139 61.775005
-2.2800779 2.720902 61.674999
-2.141547 2.71649 61.575001
-2.0042679 2.713181 61.5
-1.867318 2.709872 61.424999
-1.728581 2.7032549 61.275005
-1.574888 2.670167 60.525002
-1.438779 2.6635499 60.375004
-1.303867 2.658036 60.250004
-1.169989 2.6536241 60.150002
-1.036118 2.648109 60.025002
-0.902794 2.6425951 59.900005
-0.77001703 2.63708 59.775002
-0.63805503 2.632668 59.675003
-0.50674403 2.629359 59.600002
-0.375761 2.6260509 59.525002
-0.245313 2.624948 59.500004
-0.114974 2.6238451 59.475006
0.015256 2.6227419 59.450001
0.145437 2.6227419 59.450001
0.27561799 2.6227419 59.450001
0.405799 2.6227419 59.450001
0.53597999 2.6227419 59.450001
0.66588002 2.621639 59.425003
0.795672 2.6205361 59.400005
0.925354 2.6194329 59.375
1.054926 2.61833 59.350002
1.184389 2.617228 59.325005
1.314296 2.617228 59.325005
1.444204 2.617228 59.325005
1.574774 2.61833 59.350002
1.704736 2.61833 59.350002
1.834698 2.61833 59.350002
1.963833 2.617228 59.325005
2.0928581 2.6161251 59.300007
2.2217729 2.615021 59.275002
2.3515711 2.615021 59.275002
2.481369 2.615021 59.275002
2.612268 2.6161251 59.300007
2.744432 2.61833 59.350002
2.8756051 2.6194329 59.375
3.008153 2.621639 59.425003
3.1409199 2.6238451 59.475006
3.273906 2.6260509 59.525002
3.40854 2.629359 59.600002
3.544987 2.6337709 59.700001
3.6818731 2.6381831 59.800003
3.8207901 2.643698 59.925003
3.958606 2.648109 60.025002
4.0968599 2.6525209 60.125004
4.2337942 2.6558299 60.200005
4.371057 2.659138 60.275002
4.5067801 2.6613441 60.325005
4.6446438 2.6646531 60.400002
4.7828369 2.6679621 60.475002
4.9213581 2.6712711 60.550003
5.062294 2.6756821 60.650002
5.2036691 2.680094 60.75
5.349874 2.6867111 60.900002
5.5259972 2.7076671 61.375004
5.6926718 2.7231081 61.725002
5.844358 2.730828 61.900002
6.011301 2.7451661 62.225002
6.234005 2.7837679 63.100006
6.410048 2.800312 63.475002
6.5645189 2.8069301 63.625
6.7170129 2.812444 63.750004
6.8700538 2.8179591 63.875
7.0208988 2.8223701 63.974998
7.3093019 2.880825 65.300003
7.5920939 2.9348681 66.525002
7.7552152 2.9414859 66.675003
7.9219551 2.9492061 66.849998
8.0985126 2.9602351 67.099998
8.3314638 2.991117 67.800003
8.4986906 2.997735 67.950005
8.6538467 2.9999399 68
8.8092241 3.002146 68.050003
9.2050648 3.0848651 69.925003
9.47194 3.122364 70.775002
9.6439238 3.1278789 70.900002
9.8129997 3.1322911 71
9.986021 3.137805 71.125
10.156028 3.1422169 71.225006
10.326471 3.1466291 71.325005
10.497352 3.151041 71.425003
10.661214 3.1532459 71.475006
10.825294 3.155452 71.525002
10.989593 3.1576581 71.575005
11.150218 3.158761 71.599998
-9.3826122 3.4276869 74.025002
-9.211174 3.4242139 73.950005
-9.0339451 3.418426 73.825005
-8.8182058 3.397589 73.375008
-8.5778894 3.366334 72.700005
-8.2739429 3.3084531 71.450005
-8.1061239 3.303822 71.350006
-7.922029 3.2922461 71.100006
-7.646183 3.2413111 70.000008
-7.4848728 3.237839 69.925003
-7.3238902 3.234365 69.850006
-7.0734072 3.190376 68.900002
-6.8949032 3.1776431 68.625
-6.604578 3.111659 67.200005
-6.4502201 3.108186 67.125008
-6.2938418 3.1035559 67.025009
-6.1379018 3.0989251 66.925003
-5.9756861 3.090822 66.75
-5.764019 3.056093 66
-5.6067238 3.0491481 65.849998
-5.4583812 3.046833 65.800003
-5.310257 3.044518 65.75
-5.1623521 3.042202 65.699997
-5.0146661 3.039887 65.650002
-4.867198 3.0375719 65.599998
-4.7055488 3.025995 65.349998
-4.4716878 2.9658 64.050003
-4.328053 2.963485 64.000008
-4.1846371 2.961169 63.950001
-4.0382771 2.9565389 63.850002
-3.878618 2.9414899 63.525002
-3.7130239 2.9206531 63.075001
-3.5664029 2.913707 62.925003
-3.4231639 2.9090769 62.825001
-3.2803631 2.9044459 62.725002
-3.1367469 2.898659 62.600006
-2.9948759 2.8940279 62.5
-2.848871 2.8847671 62.300003
-2.699388 2.8708761 62
-2.55742 2.86393 61.850006
-2.4180679 2.8592999 61.75
-2.2791541 2.8546691 61.650002
-2.141547 2.8511961 61.575001
-2.0042679 2.847723 61.5
-1.867318 2.8442509 61.424999
-1.71095 2.8083651 60.650002
-1.570985 2.7956309 60.375004
-1.436396 2.7910011 60.275002
-1.3022439 2.78637 60.175003
-1.168044 2.780582 60.050003
-1.034392 2.7747941 59.925003
-0.90166301 2.770164 59.825005
-0.76905102 2.764375 59.700001
-0.63725299 2.7597449 59.600002
-0.50610602 2.7562721 59.525002
-0.375287 2.752799 59.450001
-0.245003 2.751642 59.425003
-0.114829 2.750484 59.400005
0.015243 2.750484 59.400005
0.14531399 2.750484 59.400005
0.275502 2.751642 59.425003
0.405628 2.751642 59.425003
0.53575402 2.751642 59.425003
0.6656 2.750484 59.400005
0.79533702 2.749326 59.375
0.92496401 2.7481689 59.350002
1.054482 2.7470109 59.325005
1.18389 2.7458539 59.300007
1.313189 2.7446959 59.275002
1.4435951 2.7458539 59.300007
1.573447 2.7458539 59.300007
1.704018 2.7470109 59.325005
1.833153 2.7458539 59.300007
1.962178 2.7446959 59.275002
2.0910931 2.7435379 59.250004
2.218962 2.7412231 59.200001
2.3485949 2.7412231 59.200001
2.478229 2.7412231 59.200001
2.608964 2.7423811 59.225006
2.7409639 2.7446959 59.275002
2.873184 2.7470109 59.325005
3.0056219 2.749326 59.375
3.138279 2.751642 59.425003
3.272531 2.755115 59.500004
3.4071109 2.7585881 59.575005
3.543503 2.7632179 59.675003
3.6818731 2.769006 59.800003
3.819196 2.7736361 59.900005
3.9569581 2.7782669 60.000004
4.0951571 2.782897 60.100002
4.2320361 2.78637 60.175003
4.3692441 2.7898431 60.250004
4.5067801 2.7933159 60.325005
4.6446438 2.7967889 60.400002
4.7828369 2.800261 60.475002
4.9233899 2.8048921 60.575001
5.0643811 2.8095219 60.675003
5.205811 2.814153 60.775005
5.3454809 2.817626 60.849998
5.4899831 2.8234141 60.975002
5.7042012 2.86393 61.850006
5.8561602 2.8720331 62.025005
6.0596042 2.9044459 62.725002
6.2636428 2.9357021 63.400002
6.4150972 2.9414899 63.525002
6.5619402 2.944963 63.600002
6.7091112 2.948436 63.675003
6.8592992 2.9530661 63.775002
7.0099249 2.957696 63.875
7.1637878 2.963485 64.000008
7.4465861 3.0213649 65.25
7.7377682 3.0804031 66.525002
7.90418 3.0885069 66.700005
8.080409 3.1000831 66.950005
8.3068876 3.1301811 67.600006
8.4830561 3.140599 67.825005
8.6411219 3.1440721 67.900002
8.8027506 3.1487019 68
9.1919012 3.2332079 69.825005
9.4987068 3.286458 70.975006
9.6677275 3.2910891 71.075005
9.8337317 3.2945609 71.150002
10.007082 3.300349 71.275002
10.177416 3.30498 71.375
10.344568 3.3084531 71.450005
10.508375 3.3107679 71.5
10.6724 3.3130829 71.550003
10.836644 3.315398 71.599998
11.001108 3.317714 71.650002
11.169684 3.321187 71.725006
-9.3667688 3.5835681 73.900002
-9.1893768 3.577507 73.775009
-8.9880571 3.5617471 73.450005
-8.7430925 3.527802 72.75
-8.43925 3.4684 71.525002
-8.2681532 3.462338 71.400002
-8.1004429 3.457489 71.300003
-7.9192438 3.446578 71.075005
-7.6625681 3.4017229 70.150009
-7.4768448 3.3871751 69.850006
-7.3029199 3.3774769 69.650002
-7.052875 3.331409 68.700005
-6.7994542 3.2817049 67.675003
-6.5996642 3.256247 67.150002
-6.4430132 3.2513969 67.050003
-6.2867999 3.2465479 66.950005
-6.1126809 3.2320001 66.650002
-5.9130201 3.2029049 66.050003
-5.7531028 3.1944189 65.875008
-5.600338 3.18957 65.775002
-5.4500861 3.1859331 65.699997
-5.3021808 3.1835079 65.650002
-5.1544938 3.181083 65.599998
-5.0051169 3.1774471 65.525002
-4.857924 3.1750219 65.475006
-4.7037492 3.167748 65.325005
-4.469943 3.104708 64.025002
-4.3263631 3.102284 63.974998
-4.179729 3.097435 63.875
-4.033534 3.092586 63.775002
-3.8847239 3.0853119 63.625
-3.717438 3.062278 63.150002
-3.5664029 3.051367 62.925003
-3.4231639 3.0465181 62.825001
-3.2803631 3.0416689 62.725002
-3.1367469 3.0356071 62.600006
-2.993679 3.029546 62.475002
-2.847728 3.0198469 62.275005
-2.699388 3.0065119 62
-2.55742 2.999238 61.850006
-2.417089 2.9931769 61.725002
-2.27823 2.988328 61.625004
-2.140677 2.98469 61.550003
-2.003454 2.9810541 61.475002
-1.865798 2.9762039 61.375004
-1.703897 2.928925 60.400002
-1.569684 2.925287 60.325005
-1.435204 2.920439 60.225002
-1.300621 2.914377 60.100002
-1.167071 2.909528 60.000004
-1.033529 2.903466 59.875004
-0.90053302 2.8974049 59.750004
-0.768085 2.8913431 59.625008
-0.63645101 2.8864939 59.525002
-0.50546801 2.8828571 59.450001
-0.37497199 2.8804319 59.400005
-0.24479701 2.87922 59.375
-0.114732 2.8780079 59.350002
0.01523 2.8780079 59.350002
0.145253 2.87922 59.375
0.27526999 2.87922 59.375
0.40545699 2.8804319 59.400005
0.53552902 2.8804319 59.400005
0.6656 2.8804319 59.400005
0.79533702 2.87922 59.375
0.92457402 2.876796 59.325005
1.053593 2.8743711 59.275002
1.182892 2.8731589 59.250004
1.3126349 2.8731589 59.250004
1.442378 2.8731589 59.250004
1.5727839 2.8743711 59.275002
1.702582 2.8743711 59.275002
1.8323801 2.8743711 59.275002
1.96135 2.8731589 59.250004
2.0893281 2.870734 59.200001
2.217088 2.868309 59.150005
2.346612 2.868309 59.150005
2.476136 2.868309 59.150005
2.606761 2.8695221 59.175003
2.738652 2.8719461 59.225006
2.8707621 2.8743711 59.275002
3.0030911 2.876796 59.325005
3.135639 2.87922 59.375
3.2697799 2.8828571 59.450001
3.4056809 2.887706 59.550007
3.5420189 2.892555 59.650005
3.6803341 2.898617 59.775002
3.8176031 2.903466 59.875004
3.9569581 2.909528 60.000004
4.0934529 2.9131651 60.075005
4.2320361 2.918014 60.175003
4.3692441 2.9216509 60.250004
4.508647 2.9265001 60.350002
4.6465659 2.9301369 60.425003
4.7867908 2.9349861 60.525002
4.927454 2.9398351 60.625004
5.0685549 2.944685 60.725002
5.210093 2.9495339 60.825001
5.349874 2.953171 60.900002
5.4899831 2.9568081 60.975002
5.7203398 3.007724 62.025005
5.8774042 3.018635 62.25
6.1248121 3.0744009 63.400002
6.2685828 3.0768249 63.450005
6.4150972 3.080462 63.525002
6.559361 3.0828869 63.575005
6.7064762 3.086524 63.650002
6.8539209 3.0901611 63.725002
7.004437 3.09501 63.825005
7.1525941 3.0986471 63.900005
7.3067851 3.104708 64.025002
7.5865598 3.162899 65.225006
7.8745551 3.222302 66.450005
8.0502367 3.2344251 66.700005
8.2730951 3.2647331 67.325005
8.4642954 3.2817049 67.675003
8.6220312 3.285342 67.75
8.796278 3.2950399 67.950005
9.1886091 3.3847499 69.800003
9.5187817 3.449003 71.125
9.6847296 3.4526391 71.200005
9.8510075 3.4562759 71.275002
10.024632 3.462338 71.400002
10.191675 3.465975 71.475006
10.362666 3.470824 71.575005
10.526747 3.473249 71.625008
10.687317 3.4744611 71.650002
10.847996 3.475673 71.675003
11.012624 3.4780979 71.725006
11.337093 3.5302269 72.800003
-9.3477564 3.7376361 73.75
-8.8932199 3.6831551 72.675003
-8.6078911 3.629941 71.625008
-8.4304008 3.6210721 71.450005
-8.2565737 3.6134701 71.300003
-8.0890818 3.608402 71.200005
-7.9136729 3.5995331 71.025002
-7.6789532 3.5627899 70.300003
-7.4795198 3.5412509 69.875
-7.2085538 3.484237 68.750008
-7.0451751 3.4779019 68.625
-6.756753 3.408217 67.25
-6.5922928 3.399348 67.075005
-6.421391 3.386678 66.825005
-6.2375002 3.366406 66.425003
-6.0668249 3.352469 66.150002
-5.9063048 3.3436 65.975006
-5.7487359 3.3359981 65.825005
-5.5960822 3.33093 65.725006
-5.4438639 3.3258619 65.625008
-5.2941041 3.322062 65.550003
-5.146637 3.3195269 65.5
-4.997479 3.315726 65.425003
-4.8505039 3.3131919 65.375
-4.6893482 3.3005221 65.125
-4.469943 3.2447741 64.025002
-4.3246722 3.240973 63.950001
-4.179729 3.2371731 63.875
-4.033534 3.232105 63.775002
-3.8877771 3.227037 63.675003
-3.7321551 3.213099 63.400002
-3.564986 3.1877601 62.900002
-3.421802 3.1826921 62.800003
-3.2790551 3.177624 62.700005
-3.135494 3.171288 62.575001
-2.9912829 3.163687 62.425007
-2.8454421 3.1535511 62.225002
-2.7004759 3.143415 62.025005
-2.55742 3.134546 61.850006
-2.417089 3.128211 61.725002
-2.2773049 3.121876 61.600006
-2.138938 3.1168079 61.5
-2.0026391 3.114274 61.450005
-1.840719 3.0686619 60.550003
-1.702487 3.058526 60.350002
-1.568383 3.0547249 60.275002
-1.434013 3.0496571 60.175003
-1.299539 3.043323 60.050003
-1.1656131 3.0369871 59.925003
-1.032234 3.030653 59.800003
-0.89940202 3.024317 59.675003
-0.76744097 3.019249 59.575005
-0.63591701 3.0141821 59.475006
-0.50504303 3.010381 59.400005
-0.37465599 3.0078461 59.350002
-0.244591 3.0065801 59.325005
-0.114684 3.0065801 59.325005
0.015224 3.0065801 59.325005
0.145192 3.0078461 59.350002
0.27526999 3.0091131 59.375
0.405287 3.0091131 59.375
0.535303 3.0091131 59.375
0.66531998 3.0091131 59.375
0.79500198 3.0078461 59.350002
0.92418498 3.0053129 59.300007
1.053149 3.002779 59.250004
1.182393 3.0015121 59.225006
1.311527 3.0002439 59.200001
1.441161 3.0002439 59.200001
1.571458 3.0015121 59.225006
1.701864 3.002779 59.250004
1.831607 3.002779 59.250004
1.959695 3.0002439 59.200001
2.0884459 2.9989769 59.175003
2.216151 2.996444 59.125
2.3446281 2.9951761 59.100002
2.4740429 2.9951761 59.100002
2.6045589 2.996444 59.125
2.73634 2.9989769 59.175003
2.868341 3.0015121 59.225006
3.00056 3.004045 59.275002
3.1343181 3.0078461 59.350002
3.2684059 3.011647 59.425003
3.4042511 3.016715 59.525002
3.540534 3.0217841 59.625008
3.6787951 3.0281179 59.750004
3.8160081 3.033186 59.850002
3.9553089 3.039521 59.975006
4.0934529 3.044589 60.075005
4.230278 3.0483899 60.150002
4.3692441 3.053458 60.250004
4.508647 3.058526 60.350002
4.6504121 3.0648611 60.475002
4.7927232 3.0711961 60.600002
4.9355822 3.0775311 60.725002
5.076901 3.0825989 60.825001
5.216517 3.0864 60.900002
5.3542662 3.0889339 60.950005
5.4922328 3.0914681 61
5.7295632 3.148483 62.125004
5.9836221 3.211833 63.375004
6.129643 3.2156341 63.450005
6.2710528 3.2169011 63.475002
6.4150972 3.219435 63.525002
6.559361 3.2219689 63.575005
6.7038431 3.224503 63.625
6.8512321 3.228303 63.700001
6.99895 3.232105 63.775002
7.149796 3.2371731 63.875
7.3010778 3.24224 63.974998
7.4644308 3.252377 64.175003
7.7264242 3.304323 65.200005
8.017045 3.366406 66.425003
8.2147245 3.3879449 66.849998
8.4517879 3.4246881 67.575005
8.6124868 3.4297559 67.675003
8.8027506 3.4462271 68
9.1951923 3.539984 69.850006
9.5321655 3.609669 71.225006
9.7017326 3.614737 71.325005
9.8682833 3.6185379 71.400002
10.042182 3.6248729 71.525002
10.213064 3.629941 71.625008
10.380763 3.6337421 71.699997
10.545117 3.636276 71.75
10.705961 3.637543 71.775002
10.866916 3.6388099 71.800003
11.081717 3.657815 72.175003
11.652444 3.7921159 74.824997
-9.3477564 3.898977 73.75
-9.046133 3.8395009 72.625008
-8.5958729 3.781347 71.525002
-8.4245014 3.774739 71.400002
-8.2478886 3.765487 71.225006
-8.0805616 3.7602 71.125
-7.8886032 3.7430179 70.800003
-7.6516452 3.703367 70.050003
-7.4795198 3.6941161 69.875
-7.203311 3.6319959 68.700005
-6.9245472 3.565912 67.450005
-6.739171 3.546087 67.075005
-6.5578952 3.5275829 66.725006
-6.3877602 3.5143659 66.475006
-6.2234149 3.503792 66.275002
-6.0645318 3.495863 66.125008
-5.9063048 3.487932 65.975006
-5.7465529 3.4786811 65.800003
-5.5918241 3.4720719 65.675003
-5.4376431 3.4654641 65.550003
-5.286027 3.4601769 65.449997
-5.1387801 3.4575341 65.400002
-4.989841 3.453568 65.325005
-4.8282461 3.440352 65.075005
-4.6281428 3.398057 64.275002
-4.4751792 3.3888061 64.100006
-4.328053 3.3835189 64.000008
-4.181365 3.378232 63.900005
-4.0351138 3.372946 63.800003
-3.8908291 3.3689799 63.725002
-3.7454 3.363694 63.625
-3.5635691 3.324043 62.875004
-3.4190781 3.317435 62.750008
-3.2764411 3.3121481 62.650002
-3.1329889 3.3055401 62.525005
-2.9888871 3.29761 62.375004
-2.8442979 3.288358 62.200005
-2.7004759 3.2791059 62.025005
-2.55742 3.2698541 61.850006
-2.41611 3.261924 61.700005
-2.2754569 3.253994 61.550003
-2.1372001 3.2487071 61.450005
-1.99938 3.2434199 61.350006
-1.838438 3.197161 60.475002
-1.702487 3.1905529 60.350002
-1.568383 3.186588 60.275002
-1.433417 3.1799791 60.150002
-1.298998 3.1733711 60.025002
-1.1646399 3.165441 59.875004
-1.031371 3.1588321 59.750004
-0.89902598 3.1535449 59.650005
-0.76711899 3.1482589 59.550007
-0.63564903 3.142972 59.450001
-0.50504303 3.1403289 59.400005
-0.37465599 3.1376851 59.350002
-0.244591 3.136364 59.325005
-0.114684 3.136364 59.325005
0.015224 3.136364 59.325005
0.145192 3.1376851 59.350002
0.27526999 3.1390071 59.375
0.405287 3.1390071 59.375
0.535303 3.1390071 59.375
0.66504002 3.1376851 59.350002
0.79466701 3.136364 59.325005
0.92379498 3.1337199 59.275002
1.052704 3.1310771 59.225006
1.181893 3.129755 59.200001
1.310973 3.1284339 59.175003
1.440552 3.1284339 59.175003
1.570794 3.129755 59.200001
1.701146 3.1310771 59.225006
1.830834 3.1310771 59.225006
1.959695 3.129755 59.200001
2.087564 3.1271119 59.150005
2.216151 3.1257901 59.125
2.3446281 3.1244681 59.100002
2.472996 3.123147 59.075005
2.603457 3.1244681 59.100002
2.735184 3.1271119 59.150005
2.86713 3.129755 59.200001
3.00056 3.1337199 59.275002
3.1343181 3.1376851 59.350002
3.2684059 3.14165 59.425003
3.4028211 3.1456151 59.500004
3.540534 3.1522241 59.625008
3.6772549 3.157511 59.725006
3.8160081 3.164119 59.850002
3.95366 3.169405 59.950001
4.0917501 3.1746931 60.050003
4.230278 3.1799791 60.150002
4.3692441 3.185266 60.250004
4.5105152 3.191875 60.375004
4.656179 3.2011261 60.550003
4.800632 3.2090571 60.700005
4.9437089 3.2156651 60.825001
5.0831609 3.21963 60.900002
5.2250829 3.224916 61
5.3608551 3.226238 61.025005
5.4989858 3.2288821 61.075001
5.7387848 3.28968 62.225002
5.9907031 3.3544419 63.450005
6.1320581 3.355763 63.475002
6.2735238 3.3570859 63.500004
6.4150972 3.358407 63.525002
6.559361 3.3610499 63.575005
6.7038431 3.363694 63.625
6.8512321 3.3676591 63.700001
6.99895 3.371624 63.775002
7.149796 3.37691 63.875
7.3010778 3.3821969 63.974998
7.4586148 3.3901269 64.125
7.655323 3.41524 64.600006
7.992907 3.5011489 66.225006
8.1563559 3.5090799 66.375008
8.4517879 3.57252 67.575005
8.6061239 3.5751641 67.625008
8.857769 3.6174581 68.425003
9.1919012 3.691473 69.825005
9.5422029 3.7694521 71.300003
9.711935 3.774739 71.400002
9.88556 3.781347 71.525002
10.059733 3.787955 71.650002
10.234452 3.794564 71.775002
10.398861 3.7972071 71.825005
10.563489 3.7998509 71.875008
10.724607 3.801172 71.900002
10.885833 3.802494 71.925003
11.20071 3.856683 72.950005
-8.9433718 3.952961 71.800003
-8.7555552 3.9391971 71.550003
-8.5838547 3.9323151 71.425003
-8.4156532 3.92681 71.325005
-8.2449932 3.9199281 71.200005
-8.0720406 3.911669 71.050003
-7.8133941 3.860743 70.125
-7.6434522 3.8524849 69.974998
-7.4795198 3.8469801 69.875
-7.203311 3.78229 68.700005
-6.9091482 3.7052131 67.300003
-6.7140532 3.6790609 66.825005
-6.53578 3.6611681 66.5
-6.3781509 3.6542871 66.375008
-6.221067 3.6474049 66.25
-6.0622392 3.6391461 66.099998
-5.9063048 3.6322651 65.975006
-5.7465529 3.6226299 65.800003
-5.5854378 3.611619 65.599998
-5.4314208 3.604737 65.475006
-5.2799702 3.599231 65.375
-5.1269932 3.59235 65.25
-4.9669251 3.579962 65.025002
-4.785584 3.551059 64.500008
-4.6281428 3.538671 64.275002
-4.4804149 3.533165 64.175003
-4.3314352 3.526284 64.050003
-4.1846371 3.5207779 63.950001
-4.036696 3.513896 63.825005
-3.893882 3.511143 63.775002
-3.749815 3.507014 63.700001
-3.5579009 3.4560881 62.775005
-3.4149909 3.450583 62.675007
-3.2738259 3.4464531 62.600006
-3.1304841 3.4395709 62.475002
-2.987689 3.4326899 62.350006
-2.8442979 3.4244311 62.200005
-2.7004759 3.4147971 62.025005
-2.558454 3.406538 61.875004
-2.41611 3.396904 61.700005
-2.273608 3.3858919 61.5
-2.1337221 3.377635 61.350006
-1.993677 3.368 61.174999
-1.839958 3.3322141 60.525002
-1.702487 3.3225789 60.350002
-1.567733 3.3170741 60.250004
-1.432225 3.308815 60.100002
-1.2979161 3.301934 59.975006
-1.1641541 3.2950521 59.850002
-1.030939 3.2881701 59.725006
-0.89827198 3.2812879 59.600002
-0.76679701 3.277159 59.525002
-0.63564903 3.27303 59.450001
-0.50483102 3.2688999 59.375
-0.37465599 3.267524 59.350002
-0.24469399 3.267524 59.350002
-0.114732 3.267524 59.350002
0.01523 3.267524 59.350002
0.145253 3.2688999 59.375
0.27526999 3.2688999 59.375
0.405287 3.2688999 59.375
0.535303 3.2688999 59.375
0.66504002 3.267524 59.350002
0.79466701 3.2661481 59.325005
0.92379498 3.2633951 59.275002
1.052704 3.2606421 59.225006
1.181394 3.257889 59.175003
1.310973 3.257889 59.175003
1.440552 3.257889 59.175003
1.570794 3.2592659 59.200001
1.701146 3.2606421 59.225006
1.830834 3.2606421 59.225006
1.959695 3.2592659 59.200001
2.087564 3.2565131 59.150005
2.216151 3.255137 59.125
2.3446281 3.2537601 59.100002
2.4740429 3.2537601 59.100002
2.603457 3.2537601 59.100002
2.735184 3.2565131 59.150005
2.86713 3.2592659 59.200001
3.00056 3.2633951 59.275002
3.1343181 3.267524 59.350002
3.2684059 3.2716529 59.425003
3.4042511 3.277159 59.525002
3.540534 3.2826641 59.625008
3.6772549 3.2881701 59.725006
3.8160081 3.2950521 59.850002
3.95366 3.3005569 59.950001
4.0917501 3.3060629 60.050003
4.230278 3.311568 60.150002
4.3692441 3.3170741 60.250004
4.512383 3.3253319 60.400002
4.6619458 3.3377199 60.625004
4.8065629 3.345978 60.775005
4.947773 3.3514841 60.875004
5.0894222 3.3569889 60.975002
5.2293658 3.3611181 61.050003
5.3652468 3.362494 61.075001
5.5034881 3.365247 61.125004
5.7433972 3.42856 62.275005
5.9954238 3.4960029 63.500004
6.136889 3.4973791 63.525002
6.2759929 3.4973791 63.525002
6.420146 3.5001321 63.575005
6.5619402 3.501509 63.600002
6.7064762 3.504261 63.650002
6.8512321 3.507014 63.700001
7.0016942 3.5125201 63.800003
7.1525941 3.5180249 63.900005
7.3039322 3.523531 64.000008
7.4615231 3.5317891 64.150009
7.619771 3.5400469 64.300003
7.8269539 3.570328 64.850006
8.1471395 3.650157 66.300003
8.4611683 3.7244821 67.650002
8.6220312 3.7299881 67.75
8.9224939 3.794677 68.925003
9.2083559 3.851109 69.950005
9.5522394 3.929563 71.375
9.7187347 3.933692 71.450005
9.8993816 3.943326 71.625008
10.077282 3.9515851 71.775002
10.248712 3.9570899 71.875008
10.416959 3.9612191 71.949997
10.58186 3.9639721 72
10.743252 3.965348 72.025002
10.912319 3.9694769 72.099998
-8.746377 4.0914321 71.475006
-8.5748405 4.0842772 71.350006
-8.4097528 4.0799832 71.275002
-8.2449932 4.0756898 71.200005
-8.0180759 4.0399141 70.575005
-7.8022518 4.00843 70.025002
-7.6325302 3.9998429 69.875
-7.4527602 3.985533 69.625
-7.203311 3.9325831 68.700005
-6.9091482 3.852443 67.300003
-6.6964698 3.8152361 66.650002
-6.528409 3.802356 66.425003
-6.3733459 3.7966321 66.325005
-6.21872 3.7909069 66.225006
-6.0622392 3.783752 66.099998
-5.9063048 3.776597 65.975006
-5.7465529 3.7665789 65.800003
-5.581181 3.752269 65.550003
-5.4231248 3.7422509 65.375
-5.269875 3.735096 65.25
-5.1073489 3.7207849 65
-4.9401898 3.7021811 64.675003
-4.7837291 3.690733 64.475006
-4.633543 3.6835771 64.350006
-4.4839058 3.6764221 64.224998
-4.334816 3.669266 64.100006
-4.1879091 3.663542 64.000008
-4.0398579 3.6563871 63.875
-3.896935 3.6535239 63.825005
-3.752759 3.649231 63.750004
-3.5522339 3.5876949 62.675007
-3.412266 3.5848329 62.625004
-3.2712109 3.5805399 62.550003
-3.129231 3.574816 62.450005
-2.986491 3.5676601 62.325001
-2.8431549 3.5590739 62.175007
-2.7004759 3.550487 62.025005
-2.558454 3.5419011 61.875004
-2.4151311 3.530452 61.674999
-2.2699111 3.5147099 61.400002
-2.130244 3.506124 61.25
-1.990418 3.4961071 61.075001
-1.8445179 3.4732101 60.675003
-1.701781 3.4531751 60.325005
-1.567082 3.4474499 60.225002
-1.43163 3.438864 60.075005
-1.297375 3.4317081 59.950001
-1.1631809 3.4231219 59.800003
-1.030076 3.415967 59.675003
-0.89789498 3.410243 59.575005
-0.76647502 3.4059491 59.500004
-0.635382 3.4016559 59.425003
-0.50504303 3.4002249 59.400005
-0.374814 3.398793 59.375
-0.24479701 3.398793 59.375
-0.11478 3.398793 59.375
0.015243 3.4002249 59.400005
0.14531399 3.4002249 59.400005
0.27538601 3.4002249 59.400005
0.40545699 3.4002249 59.400005
0.535303 3.398793 59.375
0.66504002 3.3973629 59.350002
0.79466701 3.395932 59.325005
0.92379498 3.393069 59.275002
1.052704 3.390208 59.225006
1.181893 3.3887761 59.200001
1.311527 3.3887761 59.200001
1.441769 3.390208 59.225006
1.571458 3.390208 59.225006
1.701864 3.391638 59.250004
1.831607 3.391638 59.250004
1.959695 3.3887761 59.200001
2.0884459 3.3873451 59.175003
2.216151 3.3844831 59.125
2.3456199 3.3844831 59.125
2.4740429 3.3830521 59.100002
2.6045589 3.3844831 59.125
2.73634 3.3873451 59.175003
2.868341 3.390208 59.225006
3.001826 3.394501 59.300007
3.135639 3.398793 59.375
3.2697799 3.4030869 59.450001
3.4042511 3.4073801 59.525002
3.540534 3.413105 59.625008
3.6787951 3.42026 59.750004
3.8160081 3.4259839 59.850002
3.9553089 3.43314 59.975006
4.0917501 3.437433 60.050003
4.230278 3.443157 60.150002
4.371057 3.4503119 60.275002
4.512383 3.457468 60.400002
4.663868 3.4717779 60.650002
4.8105178 3.481796 60.825001
4.9518371 3.48752 60.924999
5.0915079 3.4918129 61
5.2315068 3.4961071 61.075001
5.3696389 3.4989691 61.125004
5.5079889 3.5018311 61.174999
5.7503142 3.569092 62.350006
6.000144 3.6377831 63.550003
6.1393032 3.6377831 63.550003
6.2809329 3.639214 63.575005
6.4226718 3.640645 63.600002
6.5670981 3.643507 63.650002
6.7117438 3.646369 63.700001
6.8566098 3.649231 63.750004
7.004437 3.6535239 63.825005
7.1581912 3.6606801 63.950001
7.3124909 3.667835 64.075005
7.467339 3.6749899 64.200005
7.622735 3.6821461 64.325005
7.7877278 3.693594 64.525002
8.1440668 3.7937689 66.275002
8.4705496 3.876771 67.725006
8.7142973 3.919703 68.474998
9.0066385 3.982671 69.575005
9.382781 4.0799832 71.275002
9.5555859 4.0871391 71.400002
9.7221355 4.0914321 71.475006
9.906292 4.102881 71.675003
10.091324 4.1143289 71.875008
10.262971 4.1200538 71.975006
10.431437 4.1243472 72.050003
10.592883 4.1257782 72.075005
10.754438 4.1272092 72.099998
-8.7341394 4.2418542 71.375
-8.5658274 4.2359099 71.275002
-8.4038544 4.2329388 71.225006
-8.2420979 4.2299681 71.175003
-7.9953532 4.1824231 70.375
-7.7883239 4.1541939 69.900009
-7.6134148 4.1423068 69.700005
-7.367126 4.0903058 68.824997
-7.195446 4.0784202 68.625
-6.898881 3.993731 67.200005
-6.6864228 3.955101 66.550003
-6.5259519 3.946187 66.400002
-6.370944 3.940244 66.300003
-6.214025 3.9328151 66.175003
-6.059947 3.926872 66.075005
-5.904067 3.9194429 65.949997
-5.7487359 3.912014 65.825005
-5.579052 3.8941851 65.525002
-5.412756 3.8778419 65.25
-5.2557411 3.8674409 65.075005
-5.0955629 3.854069 64.850006
-4.9382811 3.8421841 64.650002
-4.785584 3.8332689 64.500008
-4.6371441 3.8273261 64.400009
-4.4873972 3.8198969 64.275002
-4.3381972 3.812469 64.150009
-4.1911812 3.806525 64.050003
-4.0430212 3.7990961 63.925003
-3.8984621 3.7946391 63.850002
-3.755702 3.791667 63.800003
-3.5494001 3.721837 62.625004
-3.4095421 3.7188649 62.575001
-3.2699029 3.715894 62.525005
-3.126725 3.7084651 62.400002
-2.9840951 3.701036 62.275005
-2.8420119 3.6936071 62.150002
-2.699388 3.6846919 62
-2.55742 3.6757779 61.850006
-2.4141519 3.663892 61.650002
-2.267139 3.644577 61.325001
-2.126766 3.634176 61.150002
-1.988788 3.6267481 61.025005
-1.843758 3.604461 60.650002
-1.701076 3.5836611 60.300003
-1.565781 3.576232 60.175003
-1.430438 3.567317 60.025002
-1.295752 3.558403 59.875004
-1.162209 3.5509739 59.750004
-1.029213 3.543545 59.625008
-0.89714199 3.5376019 59.525002
-0.76582998 3.533145 59.450001
-0.635382 3.5316589 59.425003
-0.50483102 3.528687 59.375
-0.374814 3.528687 59.375
-0.2449 3.5301731 59.400005
-0.114829 3.5301731 59.400005
0.015249 3.5316589 59.425003
0.145437 3.533145 59.450001
0.27561799 3.533145 59.450001
0.405628 3.5316589 59.425003
0.53552902 3.5301731 59.400005
0.66531998 3.528687 59.375
0.79500198 3.5272019 59.350002
0.92457402 3.5257161 59.325005
1.053593 3.5227439 59.275002
1.183391 3.5227439 59.275002
1.313189 3.5227439 59.275002
1.442986 3.5227439 59.275002
1.573447 3.52423 59.300007
1.7033 3.52423 59.300007
1.8323801 3.5227439 59.275002
1.96135 3.5212581 59.250004
2.0893281 3.5182869 59.200001
2.218025 3.5168011 59.175003
2.346612 3.515316 59.150005
2.476136 3.515316 59.150005
2.606761 3.5168011 59.175003
2.7374959 3.5182869 59.200001
2.8707621 3.5227439 59.275002
3.0030911 3.5257161 59.325005
3.1369591 3.5301731 59.400005
3.2711561 3.534631 59.475006
3.4071109 3.5405741 59.575005
3.543503 3.5465169 59.675003
3.6803341 3.552459 59.775002
3.819196 3.5598891 59.900005
3.9569581 3.5658309 60.000004
4.0951571 3.571774 60.100002
4.2320361 3.576232 60.175003
4.371057 3.582175 60.275002
4.512383 3.5896039 60.400002
4.6581011 3.600004 60.575001
4.8085399 3.6133759 60.800003
4.9518371 3.620805 60.924999
5.093595 3.6267481 61.025005
5.2336488 3.6312051 61.099998
5.3718352 3.634176 61.150002
5.5777678 3.681721 61.950005
5.7756758 3.721837 62.625004
6.000144 3.7768099 63.550003
6.1417189 3.778296 63.575005
6.285872 3.7812669 63.625
6.4277201 3.782753 63.650002
6.572257 3.7857239 63.700001
6.7170129 3.7886961 63.750004
6.864676 3.793153 63.825005
7.0126691 3.797611 63.900005
7.1637878 3.8035531 64.000008
7.3181968 3.810982 64.125
7.4702458 3.816925 64.224998
7.6286588 3.82584 64.375
7.7937632 3.8377261 64.575005
8.1532841 3.9432149 66.349998
8.4861841 4.032361 67.850006
8.8224707 4.1200209 69.325005
9.0357647 4.1482511 69.800003
9.3860731 4.2373972 71.300003
9.5555859 4.24334 71.400002
9.7221355 4.247797 71.475006
9.9028368 4.2581968 71.650002
10.101852 4.2760258 71.949997
10.273665 4.28197 72.050003
10.442296 4.286427 72.125008
10.603906 4.2879119 72.150002
-8.5628233 4.3902969 71.25
-8.4009037 4.3872161 71.200005
-8.2392015 4.3841348 71.150002
-8.0010338 4.3394618 70.425003
-7.7576842 4.2901669 69.625
-7.5806451 4.2763028 69.400002
-7.3430429 4.2270088 68.600006
-7.0853519 4.1638498 67.575005
-6.8732171 4.125339 66.950005
-6.6813989 4.09761 66.5
-6.5210381 4.088367 66.349998
-6.3637371 4.0806661 66.225006
-6.2093301 4.0745029 66.125008
-6.0553608 4.0683408 66.025002
-5.899591 4.0606389 65.900002
-5.7465529 4.0544782 65.800003
-5.5769238 4.0359921 65.5
-5.4065351 4.0159659 65.175003
-5.2496829 4.0051832 65
-5.0935988 3.9944 64.825005
-4.9401898 3.985157 64.675003
-4.7892938 3.9774549 64.550003
-4.6407442 3.971293 64.450005
-4.4908881 3.9635911 64.325005
-4.3432689 3.9574289 64.224998
-4.1944528 3.9497271 64.100006
-4.0446019 3.940484 63.950001
-3.8984621 3.9343221 63.850002
-3.75423 3.9297011 63.775002
-3.546566 3.8557589 62.575001
-3.4068179 3.8526781 62.525005
-3.2672889 3.849597 62.475002
-3.1242199 3.8418951 62.350006
-2.981699 3.834193 62.225002
-2.839726 3.8264899 62.100006
-2.697211 3.8172481 61.950005
-2.556386 3.809545 61.825001
-2.413173 3.7972219 61.625004
-2.2662151 3.7771959 61.300003
-2.125026 3.7648721 61.099998
-1.9855289 3.7540891 60.924999
-1.840719 3.7309821 60.550003
-1.699666 3.712497 60.250004
-1.5644799 3.7047939 60.125004
-1.429247 3.6955521 59.975006
-1.294129 3.684768 59.800003
-1.16075 3.6770661 59.675003
-1.02835 3.6709039 59.575005
-0.89638799 3.6647429 59.475006
-0.765508 3.6616621 59.425003
-0.63484699 3.6585801 59.375
-0.50483102 3.6585801 59.375
-0.374814 3.6585801 59.375
-0.2449 3.660121 59.400005
-0.114925 3.663202 59.450001
0.015262 3.6647429 59.475006
0.145559 3.6662829 59.500004
0.27584901 3.6662829 59.500004
0.40596899 3.6647429 59.475006
0.53597999 3.663202 59.450001
0.66588002 3.6616621 59.425003
0.795672 3.660121 59.400005
0.925354 3.6585801 59.375
1.054926 3.6570401 59.350002
1.184888 3.6570401 59.350002
1.3154041 3.6585801 59.375
1.445421 3.6585801 59.375
1.5761009 3.660121 59.400005
1.705454 3.6585801 59.375
1.834698 3.6570401 59.350002
1.9630049 3.65396 59.300007
2.0910931 3.650878 59.250004
2.218962 3.6477971 59.200001
2.347604 3.6462569 59.175003
2.4771831 3.6462569 59.175003
2.6078629 3.6477971 59.200001
2.7398081 3.650878 59.250004
2.871973 3.65396 59.300007
3.0043571 3.6570401 59.350002
3.138279 3.6616621 59.425003
3.272531 3.6662829 59.500004
3.40854 3.6724451 59.600002
3.544987 3.678607 59.700001
3.683413 3.6863091 59.825005
3.8207901 3.692471 59.925003
3.9602549 3.7001729 60.050003
4.0968599 3.7047939 60.125004
4.2337942 3.7094159 60.200005
4.37287 3.7155781 60.300003
4.512383 3.7217391 60.400002
4.656179 3.7309821 60.550003
4.8045859 3.743305 60.75
4.9498048 3.752548 60.900002
5.093595 3.760251 61.025005
5.2336488 3.7648721 61.099998
5.3740311 3.7694931 61.174999
5.622787 3.848057 62.450005
5.8563752 3.912756 63.500004
6.000144 3.915837 63.550003
6.144134 3.9189169 63.600002
6.288342 3.921998 63.650002
6.4327688 3.9250801 63.700001
6.5774159 3.92816 63.750004
6.724916 3.9327819 63.825005
6.8700538 3.9358621 63.875
7.0208988 3.942024 63.974998
7.169384 3.946645 64.050003
7.323904 3.9543481 64.175003
7.4789701 3.96205 64.300003
7.637547 3.971293 64.450005
7.8028159 3.9836171 64.650002
8.1594276 4.0914488 66.400002
8.4924374 4.183876 67.900002
8.8479233 4.2840052 69.525002
9.1846352 4.3718109 70.950005
9.3893642 4.394918 71.325005
9.5589314 4.4010801 71.425003
9.7255363 4.4057012 71.5
9.906292 4.4164839 71.675003
10.108872 4.436511 72
10.277229 4.4411321 72.075005
10.445915 4.4457531 72.150002
10.611255 4.4488339 72.200005
-8.5538101 4.5413842 71.175003
-8.3950043 4.5397892 71.150002
-8.227623 4.5334082 71.050003
-8.0095549 4.4983149 70.500008
-7.7437558 4.4345088 69.500008
-7.5123758 4.3882499 68.775002
-7.3136058 4.3595371 68.325005
-7.0591402 4.2957311 67.325005
-6.8501182 4.2574468 66.725006
-6.6738629 4.238306 66.425003
-6.5136671 4.228734 66.275002
-6.3565302 4.2207589 66.150002
-6.2022872 4.2143779 66.050003
-6.0484819 4.2079978 65.949997
-5.8951149 4.2016168 65.849998
-5.742187 4.1952372 65.75
-5.581181 4.182476 65.550003
-5.408608 4.1601429 65.200005
-5.2496829 4.1473818 65
-5.0955629 4.1378121 64.850006
-4.9421 4.1282411 64.700005
-4.7930031 4.12186 64.600006
-4.6443448 4.115479 64.500008
-4.4961238 4.1090989 64.400009
-4.3466501 4.1011229 64.275002
-4.1977239 4.0931468 64.150009
-4.0446019 4.0803862 63.950001
-3.896935 4.0724111 63.825005
-3.751287 4.06603 63.725002
-3.546566 3.9926529 62.575001
-3.4054561 3.9878671 62.5
-3.2646739 3.9830821 62.425007
-3.1217151 3.975106 62.300003
-2.9793029 3.9671309 62.175007
-2.8374391 3.9591551 62.050003
-2.695034 3.949584 61.900002
-2.5532849 3.9400129 61.75
-2.412194 3.9304421 61.600006
-2.2680631 3.9144909 61.350006
-2.1224179 3.893754 61.025005
-1.979012 3.8746121 60.725002
-1.834638 3.8506849 60.350002
-1.6982549 3.841115 60.200005
-1.562529 3.831543 60.050003
-1.426864 3.8203771 59.875004
-1.291965 3.809211 59.700001
-1.158805 3.8012359 59.575005
-1.027056 3.7964499 59.500004
-0.89563501 3.7916651 59.425003
-0.76486403 3.7884741 59.375
-0.63458002 3.7868791 59.350002
-0.50461799 3.7868791 59.350002
-0.37465599 3.7868791 59.350002
-0.2449 3.7900691 59.400005
-0.114925 3.7932589 59.450001
0.015268 3.7964499 59.500004
0.14562 3.7980449 59.525002
0.27596501 3.7980449 59.525002
0.40614 3.7964499 59.500004
0.53643 3.7964499 59.500004
0.66644102 3.7948551 59.475006
0.79634202 3.7932589 59.450001
0.92652297 3.7932589 59.450001
1.056704 3.7932589 59.450001
1.187384 3.7948551 59.475006
1.31762 3.7948551 59.475006
1.448464 3.7964499 59.500004
1.578091 3.7948551 59.475006
1.7076091 3.7932589 59.450001
1.836244 3.7900691 59.400005
1.96466 3.7868791 59.350002
2.0928581 3.783689 59.300007
2.2208359 3.780498 59.250004
2.349587 3.778903 59.225006
2.4792759 3.778903 59.225006
2.608964 3.778903 59.225006
2.7409639 3.782094 59.275002
2.873184 3.785284 59.325005
3.0056219 3.7884741 59.375
3.1396 3.7932589 59.450001
3.273906 3.7980449 59.525002
3.40997 3.804426 59.625008
3.5479569 3.8124011 59.750004
3.686491 3.8203771 59.875004
3.8239779 3.8267579 59.975006
3.961904 3.833138 60.075005
4.1002669 3.839519 60.175003
4.2355518 3.8427091 60.225002
4.3746819 3.8490901 60.325005
4.512383 3.8538749 60.400002
4.6542559 3.861851 60.525002
4.7986541 3.8714221 60.675003
4.947773 3.8841829 60.875004
5.0915079 3.892159 61
5.2315068 3.896944 61.075001
5.3894048 3.9144909 61.350006
5.6678052 4.0165801 62.950005
5.8563752 4.0516729 63.500004
6.000144 4.0548639 63.550003
6.144134 4.058054 63.600002
6.290813 4.06284 63.675003
6.4352951 4.06603 63.725002
6.5825739 4.0708151 63.800003
6.72755 4.0740061 63.850002
6.875432 4.0787911 63.925003
7.0263858 4.0851722 64.025002
7.1749811 4.0899572 64.100006
7.326756 4.0963368 64.200005
7.484786 4.1059079 64.350006
7.655323 4.12186 64.600006
7.8299708 4.1394062 64.875
8.1625004 4.238306 66.425003
8.4861841 4.3292289 67.850006
8.8542862 4.4392939 69.575005
9.2105265 4.5397892 71.150002
9.3959455 4.5541449 71.375
9.5622768 4.5589299 71.450005
9.732337 4.565311 71.550003
9.9235687 4.5812631 71.800003
10.108872 4.5940242 72
10.280794 4.6004038 72.099998
10.449533 4.6051888 72.175003
-8.5628233 4.7020411 71.25
-8.3802557 4.687192 71.025002
-8.1668272 4.6541948 70.525002
-7.9953532 4.6442971 70.375
-7.732614 4.5799532 69.400002
-7.4768748 4.5172591 68.450005
-7.2814941 4.489212 68.025002
-7.0355468 4.4281678 67.099998
-6.8347182 4.3935208 66.575005
-6.6663289 4.3786721 66.349998
-6.503839 4.3671241 66.175003
-6.34692 4.3588748 66.050003
-6.1928959 4.3522749 65.949997
-6.041604 4.3473258 65.875008
-5.888401 4.3407259 65.775002
-5.7356362 4.3341269 65.675003
-5.579052 4.3242278 65.525002
-5.416904 4.3093801 65.300003
-5.2557411 4.2945309 65.075005
-5.0994921 4.2829819 64.900002
-4.94592 4.2730832 64.75
-4.7967129 4.2664838 64.650002
-4.647944 4.2598839 64.550003
-4.4996152 4.253284 64.450005
-4.3517218 4.246686 64.350006
-4.204268 4.2400861 64.250008
-4.0382771 4.2136889 63.850002
-3.88625 4.20049 63.650002
-3.7424569 4.1955409 63.575005
-3.5494001 4.1328468 62.625004
-3.404094 4.1229482 62.475002
-3.263366 4.1179981 62.400002
-3.1204619 4.1097488 62.275005
-2.976907 4.0998502 62.125004
-2.8351519 4.0915999 62
-2.692857 4.0817022 61.850006
-2.551218 4.0718031 61.700005
-2.4102359 4.061903 61.550003
-2.2689869 4.050354 61.375004
-2.1215489 4.0256071 61
-1.9724931 3.9942601 60.525002
-1.832358 3.977762 60.275002
-1.6968451 3.969512 60.150002
-1.559927 3.9563141 59.950001
-1.422097 3.9381659 59.675003
-1.288177 3.928267 59.525002
-1.156373 3.923317 59.450001
-1.025329 3.920017 59.400005
-0.89488101 3.9183669 59.375
-0.76422 3.9150679 59.325005
-0.63404602 3.9134181 59.300007
-0.50419301 3.9134181 59.300007
-0.37434101 3.9134181 59.300007
-0.24469399 3.916718 59.350002
-0.114877 3.9216671 59.425003
0.015262 3.9249671 59.475006
0.14562 3.928267 59.525002
0.276081 3.9299159 59.550007
0.40631101 3.928267 59.525002
0.53665602 3.928267 59.525002
0.66672099 3.926616 59.500004
0.79701102 3.926616 59.500004
0.92769098 3.928267 59.525002
1.058037 3.928267 59.525002
1.188881 3.9299159 59.550007
1.3198349 3.931566 59.575005
1.45029 3.931566 59.575005
1.580744 3.931566 59.575005
1.7097631 3.928267 59.525002
1.838562 3.9249671 59.475006
1.966316 3.920017 59.400005
2.0946219 3.916718 59.350002
2.2227099 3.9134181 59.300007
2.350579 3.9101181 59.250004
2.4803219 3.9101181 59.250004
2.610065 3.9101181 59.250004
2.7409639 3.911768 59.275002
2.873184 3.9150679 59.325005
3.0056219 3.9183669 59.375
3.1396 3.923317 59.450001
3.275281 3.9299159 59.550007
3.4114001 3.936516 59.650005
3.5494411 3.9447651 59.775002
3.689569 3.954664 59.925003
3.8287599 3.962913 60.050003
3.9652021 3.9678631 60.125004
4.1019711 3.9728119 60.200005
4.239069 3.977762 60.275002
4.3764958 3.9827111 60.350002
4.5142512 3.9876609 60.425003
4.6542559 3.9942601 60.525002
4.7966771 4.0025091 60.650002
4.941678 4.0124078 60.800003
5.085248 4.020658 60.924999
5.2293658 4.0289068 61.050003
5.4816442 4.1179981 62.400002
5.7060699 4.1823421 63.375004
5.8517628 4.1872911 63.450005
5.9977851 4.1922412 63.525002
6.1417189 4.1955409 63.575005
6.288342 4.20049 63.650002
6.4352951 4.2054391 63.725002
6.5825739 4.2103891 63.800003
6.7301831 4.2153382 63.875
6.8781199 4.2202878 63.950001
7.02913 4.2268872 64.050003
7.1805768 4.2334871 64.150009
7.3324628 4.2400861 64.250008
7.502233 4.2565851 64.500008
7.6819859 4.2780318 64.825005
7.8480749 4.2912312 65.025002
8.1625004 4.3836222 66.425003
8.4799299 4.4743629 67.800003
8.8574677 4.593152 69.600006
9.2169981 4.698741 71.200005
9.4025278 4.7135901 71.425003
9.5723143 4.7201891 71.525002
9.7459402 4.7284379 71.650002
9.9270229 4.7399869 71.825005
10.105363 4.749887 71.975006
10.277229 4.756485 72.075005
-8.3271599 4.8118911 70.575005
-8.1465626 4.7965498 70.350006
-7.9527502 4.772687 70.000008
-7.71033 4.718142 69.200005
-7.4577599 4.6550741 68.275002
-7.25741 4.6226878 67.800003
-7.0224409 4.5664392 66.975006
-6.824451 4.5323482 66.475006
-6.661305 4.5204172 66.300003
-6.4915538 4.5033708 66.050003
-6.3373098 4.4965529 65.949997
-6.183506 4.4897351 65.849998
-6.0324321 4.484621 65.775002
-5.8816862 4.479507 65.699997
-5.7290859 4.4726892 65.599998
-5.5747948 4.4641671 65.475006
-5.416904 4.4522352 65.300003
-5.25776 4.4385991 65.100006
-5.1014571 4.4266672 64.925003
-4.949739 4.4181442 64.800003
-4.7985678 4.4096222 64.675003
-4.651545 4.4045081 64.600006
-4.5031061 4.3976898 64.500008
-4.3567939 4.3925772 64.425003
-4.2091761 4.3857579 64.325005
-4.0177221 4.331213 63.525002
-3.8740389 4.3260999 63.450005
-3.729212 4.3192821 63.350002
-3.559319 4.2817822 62.800003
-3.4027309 4.2579179 62.450005
-3.260751 4.251101 62.350006
-3.1192091 4.2442818 62.25
-2.975709 4.234056 62.100006
-2.8340089 4.225533 61.975002
-2.6917679 4.2153049 61.825001
-2.550184 4.2050781 61.674999
-2.4092569 4.1948509 61.525005
-2.2699111 4.1863279 61.400002
-2.124157 4.1641688 61.075001
-1.9708641 4.123261 60.475002
-1.831598 4.1079202 60.250004
-1.694024 4.0942841 60.050003
-1.552771 4.068716 59.675003
-1.417927 4.0567842 59.500004
-1.286013 4.051671 59.425003
-1.154914 4.0482612 59.375
-1.024035 4.0448518 59.325005
-0.89375103 4.043148 59.300007
-0.76357597 4.0414429 59.275002
-0.63351101 4.0397391 59.250004
-0.50376803 4.0397391 59.250004
-0.37402499 4.0397391 59.250004
-0.244385 4.0414429 59.275002
-0.114732 4.0465569 59.350002
0.015256 4.0533748 59.450001
0.145559 4.0567842 59.500004
0.27596501 4.0584879 59.525002
0.40631101 4.0584879 59.525002
0.53665602 4.0584879 59.525002
0.66700101 4.0584879 59.525002
0.797346 4.0584879 59.525002
0.92808098 4.0601931 59.550007
1.058925 4.0618968 59.575005
1.190378 4.0653071 59.625008
1.321496 4.0670109 59.650005
1.4521151 4.0670109 59.650005
1.5820709 4.0653071 59.625008
1.711199 4.0618968 59.575005
1.840108 4.0584879 59.525002
1.96797 4.0533748 59.450001
2.0963869 4.0499659 59.400005
2.2245851 4.0465569 59.350002
2.3525629 4.043148 59.300007
2.481369 4.0414429 59.275002
2.611167 4.0414429 59.275002
2.7409639 4.0414429 59.275002
2.871973 4.043148 59.300007
3.0056219 4.0482612 59.375
3.1396 4.0533748 59.450001
3.275281 4.0601931 59.550007
3.4128289 4.068716 59.675003
3.5524099 4.0789428 59.825005
3.6926479 4.08917 59.975006
3.831948 4.097692 60.100002
3.9684989 4.1028061 60.175003
4.1053782 4.1079202 60.250004
4.2408271 4.1113291 60.300003
4.3783088 4.1164432 60.375004
4.5142512 4.1198521 60.425003
4.6542559 4.1266689 60.525002
4.7947001 4.1334882 60.625004
4.937613 4.1420102 60.75
5.0789881 4.148828 60.849998
5.2443562 4.174397 61.225002
5.5299602 4.2920089 62.950005
5.7015691 4.3175769 63.325005
5.8471522 4.32269 63.400002
5.993063 4.3278041 63.475002
6.1393032 4.3329182 63.550003
6.285872 4.3380318 63.625
6.4352951 4.3448501 63.725002
6.5825739 4.3499632 63.800003
6.7301831 4.3550768 63.875
6.8808088 4.3618951 63.974998
7.0318742 4.3687129 64.075005
7.1833758 4.3755312 64.175003
7.341022 4.3857579 64.325005
7.5342188 4.41644 64.775002
7.6997609 4.4300771 64.975006
7.863162 4.442008 65.150002
8.1625004 4.5289388 66.425003
8.4705496 4.6175742 67.725006
8.867013 4.7505279 69.675003
9.23318 4.8630271 71.325005
9.4124012 4.874959 71.5
9.5823517 4.8817768 71.599998
9.7561407 4.8902998 71.725006
9.930479 4.8988218 71.849998
10.105363 4.9073448 71.975006
-8.294713 4.9469352 70.300003
-8.1349831 4.9434171 70.250008
-7.881742 4.881844 69.375
-7.6016941 4.80092 68.225006
-7.4304519 4.7868462 68.025002
-7.241354 4.760457 67.650002
-6.9988499 4.697125 66.75
-6.816752 4.6724958 66.400002
-6.648746 4.6566629 66.175003
-6.479269 4.639071 65.925003
-6.3252988 4.6320338 65.825005
-6.1741161 4.6267571 65.75
-6.0255542 4.6232381 65.699997
-5.8749719 4.61796 65.625008
-5.7225361 4.6109228 65.525002
-5.570538 4.6038871 65.425003
-5.412756 4.5915718 65.25
-5.2557411 4.579257 65.075005
-5.1014571 4.5687022 64.925003
-4.949739 4.559906 64.800003
-4.8004231 4.5528688 64.700005
-4.6533451 4.5475912 64.625
-4.5065961 4.5423141 64.550003
-4.361866 4.538795 64.500008
-4.1535549 4.4666672 63.475002
-4.0113969 4.4631491 63.425003
