ply
format ascii 1.0
comment PCL generated
element vertex 1552
property float x
property float y
property float z
element face 0
element camera 0
property float view_px
property float view_py
property float view_pz
property float x_axisx
property float x_axisy
property float x_axisz
property float y_axisx
property float y_axisy
property float y_axisz
property float z_axisx
property float z_axisy
property float z_axisz
property float focal
property float scalex
property float scaley
property float centerx
property float centery
property int viewportx
property int viewporty
property float k1
property float k2
end_header
-3.5870438 8.4942417 65.699501
-3.4178543 6.8867965 65.763802
-3.3821869 7.0412526 65.790131
-3.5550728 7.6209464 65.787857
-3.5428581 7.7705541 65.790749
-4.0941315 7.8796353 65.783157
-3.5715714 7.91085 65.752533
-3.3790741 7.9243417 65.736893
-3.7281685 8.0521297 65.794235
-3.5885963 8.0536804 65.726059
-3.7276497 8.1988735 65.785385
-3.5880814 8.2005348 65.717209
-3.7271347 8.3456192 65.77655
-3.5875626 8.3473892 65.708359
-3.7266159 8.492363 65.7677
-3.7085915 8.6434059 65.776489
-3.5762329 6.5886741 65.83223
-3.7153244 6.7350135 65.891525
-3.5757141 6.7355819 65.82338
-3.557663 6.8861308 65.832153
-3.2948112 6.9122624 65.887009
-3.5220604 7.0404849 65.858566
-3.8881454 7.1669974 65.897583
-3.3289337 7.199676 65.83403
-4.2876015 7.2848105 65.899704
-4.1139641 7.2934909 65.867828
-3.9400139 7.3021502 65.835632
-3.6782494 7.329824 65.891464
-3.293251 7.3546262 65.860336
-4.3044701 7.4269233 65.873138
-4.2399101 7.4595237 65.873199
-4.1308708 7.4358239 65.84127
-3.956955 7.4447055 65.809113
-3.8696556 7.4640231 65.897614
-3.7127342 7.4690108 65.847275
-3.4854355 7.4894176 65.867218
-4.3039551 7.5728498 65.864334
-4.1445351 7.586647 65.830383
-3.9389839 7.5949845 65.817978
-3.2575836 7.5097928 65.886612
-3.8691368 7.6106582 65.888771
-3.7297211 7.6118941 65.82077
-4.2802606 7.7240787 65.879234
-4.1225128 7.7346644 65.831985
-3.9573936 7.7345128 65.831802
-3.868618 7.7572923 65.879929
-3.7233684 7.7599626 65.81781
-4.2681541 7.872766 65.882286
-4.0944748 7.8823161 65.850311
-3.935365 7.8826756 65.833351
-3.7286873 7.9053845 65.803085
-3.6936874 7.9134336 65.838387
-3.5189514 7.9229178 65.805374
-4.2502594 8.0228882 65.891243
-4.0765381 8.0326538 65.859215
-3.9133415 8.0308743 65.834877
-3.6406631 8.0725269 65.882484
-3.4562287 8.0748405 65.858521
-4.0585938 8.1831017 65.868126
-3.9232368 8.1551876 65.854797
-3.8845253 8.1930637 65.835739
-3.7508848 8.1869659 65.861992
-3.5993259 8.1146851 65.864952
-4.0560675 8.2564316 65.85672
-3.9030774 8.2342148 65.859253
-3.4126778 8.2418537 65.893295
-4.2078772 8.303688 65.853981
-4.0232315 8.3378525 65.894737
-3.8665504 8.3438358 65.844574
-3.848568 8.4947186 65.853416
-3.8305893 8.6457081 65.862251
-3.8126068 8.7968102 65.871078
-4.0306635 8.88237 65.851593
-3.8790419 8.8601303 65.854103
-3.726404 8.8629303 65.856407
-3.5729144 8.8907623 65.858513
-3.4203317 8.8935623 65.860817
-4.0265989 8.9825134 65.850769
-3.8742349 8.9853134 65.853073
-3.7227778 8.9630661 65.855583
-3.570359 8.9658661 65.857887
-3.2647784 8.9964828 65.862289
-4.1778917 9.0047607 65.848259
-3.6813583 6.4483733 65.944603
-3.8378334 6.5912824 65.986092
-3.6983452 6.5917487 65.91806
-3.4534683 6.6133924 65.955742
-3.8547783 6.7344356 65.959526
-3.6278267 6.7529559 65.979927
-3.4704895 6.7570968 65.929214
-4.0284004 6.8731332 65.983032
-3.8309772 6.8859868 65.974304
-3.6973114 6.8854556 65.900352
-3.6273079 6.9000278 65.971062
-3.4699707 6.9043326 65.920341
-4.2364845 7.0039649 65.970673
-4.0394988 7.0171371 65.962364
-3.8450108 7.0296664 65.950691
-3.6559563 7.0409374 65.932739
-3.4519081 7.0552649 65.929108
-3.2591438 7.067102 65.9133
-4.4267502 7.1378741 65.975723
-4.3832302 7.1873865 65.975578
-4.247551 7.1476035 65.950012
-4.0447922 7.1623192 65.947624
-3.827034 7.1801376 65.959564
-3.6481476 7.1894822 65.931236
-3.4689331 7.1988053 65.902588
-4.5993309 7.2750325 65.998276
-4.4320159 7.2824731 65.960991
-3.416317 7.2100539 65.95549
-3.2234612 7.2221599 65.93959
-4.3253651 7.3263817 65.937111
-4.2093735 7.3019748 65.979736
-4.1591835 7.3039336 65.984314
-4.0209861 7.3370037 65.960274
-3.8451002 7.3453064 65.950478
-3.7392681 7.3849001 65.975006
-3.6082535 7.3450503 65.962128
-3.4333344 7.3536496 65.92897
-4.5988159 7.4206843 65.989502
-4.4372826 7.4270377 65.946259
-4.3687782 7.4855609 65.991898
-4.2088585 7.4482017 65.970917
-4.0680141 7.4479003 65.933609
-3.9914856 7.4667535 65.9832
-3.5727348 7.4999003 65.988586
-4.6156082 7.5624089 65.962868
-4.5809975 7.5702662 65.998573
-4.4541154 7.5689449 65.919655
-4.2518044 7.584619 65.917664
-4.1861629 7.5628109 65.973
-4.0352173 7.5535893 65.928589
-3.889318 7.5441074 65.960503
-3.7378509 7.5263782 65.949997
-3.594799 7.529232 65.975006
-3.3977318 7.5087132 65.955353
-4.1710939 7.6706562 65.949997
-4.0349598 7.6361141 65.93557
-3.9909706 7.6133351 65.974365
-3.882266 7.6706562 65.949997
-3.7378509 7.6706562 65.949997
-3.5747566 7.6623077 65.986191
-3.3504436 7.6666031 65.993446
-3.2219009 7.6651778 65.912888
-4.615097 7.7080083 65.954086
-4.5804825 7.7159724 65.989792
-4.4420319 7.7173791 65.922745
-4.1817551 7.7466197 65.979942
-4.0165901 7.7539525 65.938919
-3.8479576 7.701673 65.940842
-4.5742011 7.8630261 65.986946
-4.4299598 7.8658862 65.925827
-4.2507744 7.8767991 65.900047
-4.1726761 7.8178959 65.975006
-4.0282068 7.8178959 65.975006
-3.8508084 7.8315306 65.951355
-3.7392681 7.8178959 65.975006
-3.6708031 7.826014 65.991287
-3.3440742 7.8155255 65.990425
-3.2038078 7.8168159 65.92157
-4.0073662 7.9024663 65.93895
-3.9899368 7.9064965 65.956696
-3.8196468 7.9522314 65.919044
-3.7458649 7.9321227 65.994934
-3.65905 7.9732175 65.995186
-3.5361748 7.9496579 65.997269
-3.3435555 7.9631438 65.981522
-3.1857071 7.9685636 65.930237
-4.562149 8.0114803 65.990067
-4.4063187 8.0171909 65.940765
-4.1807213 8.0392342 65.962303
-3.9545746 8.0612469 65.983307
-3.7977371 8.0668945 65.933014
-3.535656 8.0970039 65.988388
-4.3537674 8.1755486 65.985374
-4.2149734 8.1772614 65.917969
-3.7943573 8.1397877 65.935516
-3.3430328 8.1107616 65.972626
-3.1763973 8.1183834 65.930115
-3.8008995 8.2911396 65.956451
-3.7448311 8.2261581 65.977219
-3.552639 8.2402143 65.961853
-3.3249702 8.2625122 65.981339
-3.1582966 8.2703218 65.938774
-4.1623001 8.33605 65.962433
-3.5346146 8.391695 65.970627
-3.3770752 8.3976269 65.919617
-4.1270142 8.4909134 65.989113
-3.9878693 8.4928188 65.921349
-3.8257256 8.4466896 65.994431
-3.3063927 8.5620995 65.981133
-3.9525032 8.6480064 65.947937
-3.9345665 8.7990551 65.956802
-4.4847369 8.9951401 65.995796
-4.3335533 8.9728928 65.998352
-3.8992004 8.9546223 65.983368
-3.7515678 6.3149266 66.092422
-3.6293793 6.3117385 66.006523
-3.5593872 6.3254361 66.077286
-3.8034363 6.4514995 66.03038
-3.5763702 6.4692473 66.050713
-3.3838387 6.4800086 66.03521
-3.9597473 6.5943446 66.071732
-3.7679939 6.6054263 66.056976
-3.6108475 6.6094165 66.00647
-4.3415794 6.7182508 66.091263
-4.1505957 6.7296553 66.077271
-4.0114975 6.7302547 66.009613
-3.9708455 6.7386394 66.051048
-3.7791126 6.7499948 66.036308
-4.5316505 6.852695 66.096092
-4.3699646 6.8583074 66.052742
-4.2022285 6.8651223 66.015076
-4.1674652 6.8724213 66.050652
-4.0109825 6.8767819 66.000778
-3.9761391 6.8840766 66.036285
-3.8018799 6.8920617 66.00383
-4.5473194 6.9736724 66.067093
-4.3925781 6.9994178 66.020172
-4.4656768 7.0528603 66.036644
-4.3366303 7.0168176 66.074959
-4.238205 7.0186768 66.033844
-4.1669426 7.018786 66.04184
-3.9930382 7.0270104 66.009705
-3.5742912 7.0581908 66.015213
-4.7380905 7.1283975 66.073883
-4.571003 7.1356525 66.036827
-4.3660488 7.1510406 66.038101
-4.2567468 7.1729045 66.059692
-4.1838188 7.1613879 66.015221
-4.0563498 7.1276083 66.085258
-3.8881531 7.1043029 66.050003
-3.7435191 7.1043029 66.050003
-4.7548447 7.2701192 66.047218
-4.5589499 7.2839427 66.039955
-4.4661102 7.2036338 66.051872
-4.3568611 7.2990108 66.038208
-4.1774192 7.2487988 66.050003
-4.0298505 7.273653 66.043579
-3.8852091 7.2433109 66
-3.740685 7.2433109 66
-3.598886 7.2487988 66.050003
-4.4542618 7.352035 66.055801
-4.322053 7.3932939 66.050003
-4.1830611 7.365015 66.031097
-4.0327859 7.3932939 66.050003
-3.8881531 7.3932939 66.050003
-3.7792015 7.3992314 66.047867
-3.5961609 7.3876982 66
-3.455559 7.3960929 66.075005
-3.3339424 7.3752074 66.02887
-4.7197976 7.4233613 66.074242
-4.558435 7.4297233 66.031166
-4.3563461 7.4451022 66.029404
-4.2208519 7.4666514 66.056213
-3.9447975 7.421783 66.00116
-3.7648849 7.487205 66.003822
-4.7192855 7.5689597 66.065453
-4.4739938 7.5439515 66.07151
-4.3373041 7.5616379 66.0103
-4.1774192 7.5377908 66.050003
-4.0312591 7.5349369 66.025002
-3.8866811 7.5349369 66.025002
-3.7379026 7.5398865 66.046318
-3.5838547 7.520205 66.081146
-3.454252 7.5377908 66.050003
-3.2749596 7.5357242 66.07872
-3.0466461 7.5560689 66.097656
-4.4569845 7.6659961 66.052811
-4.3470659 7.6569948 66.006393
-4.2273979 7.6184955 66.077118
-4.1774192 7.6822882 66.050003
-4.0312591 7.679379 66.025002
-3.8866811 7.679379 66.025002
-3.7308891 7.6686363 66.030708
-3.5356255 7.6597838 66.050827
-3.452945 7.679379 66.025002
-4.7187705 7.7145576 66.056679
-4.4318938 7.7768416 66.071709
-4.3379707 7.7412601 66.029602
-3.7463837 7.7851043 66.003799
-4.735527 7.8561149 66.030014
-4.6837234 7.8682351 66.083679
-4.5669518 7.8164029 66.002991
-4.4666858 7.8267841 66.050003
-4.310771 7.8581657 66.028206
-4.1774192 7.8267841 66.050003
-4.0312591 7.8238211 66.025002
-3.8881531 7.8267841 66.050003
-3.744936 7.8297458 66.075005
-3.5522461 7.8100166 66.020287
-3.454252 7.8267841 66.050003
-4.5735321 7.968801 66.023849
-4.4191375 7.9482322 66.082825
-4.322053 7.9712801 66.050003
-4.1671023 7.9478512 66.035561
-4.0320225 7.9697714 66.037506
-3.8874166 7.9697714 66.037506
-3.7421019 7.9682631 66.025002
-3.5548325 7.9611182 66.041809
-3.454252 7.9712801 66.050003
-4.7004776 8.0098495 66.057007
-4.5275345 8.0196648 66.025749
-4.3766327 8.0901089 66.058479
-4.111187 8.055584 66.033371
-3.7278824 8.0832214 66.003769
-3.0450783 8.0007248 66.070847
-4.5541267 8.1474657 66.048218
-4.4924088 8.1738281 66.052628
-4.3190765 8.1838379 66.020981
-4.0343118 8.1188478 66.075005
-3.8896241 8.1188478 66.075005
-3.744936 8.1188478 66.075005
-3.6221781 8.126297 66.036652
-3.5186195 8.1050415 66.079613
-4.3831749 8.2424488 66.079376
-4.0758934 8.210393 66.060059
-3.9117873 8.2356939 66.011368
-3.8843613 8.224493 66.045364
-3.7522304 8.2079315 66.015678
-3.6822548 8.2571287 66.033699
-4.4399757 8.3324127 66.097336
-4.3012123 8.3342361 66.029968
-4.2069101 8.374733 66.006874
-4.0562849 8.3024292 66.009979
-3.848999 8.3797913 66.071945
-3.6657314 8.3920364 66.047928
-3.4401193 8.3387375 66.01902
-4.3583345 8.4219818 66.004036
-4.248661 8.493248 66.074524
-3.6968155 8.431179 66.07518
-3.4821129 8.4042625 66.02356
-3.2893753 8.4185581 66.007645
-3.0435104 8.4453812 66.044044
-3.6390152 8.5456676 66.065567
-3.4465885 8.5602579 66.049942
-4.0743446 8.6502991 66.033539
-3.3935661 8.7207699 66.093956
-4.0216675 8.8100166 66.077957
-3.8803108 8.8811188 66.00631
-3.7277277 8.8839188 66.008614
-4.1833334 8.9256058 66.001175
-4.0318756 8.9033661 66.003738
-3.7240975 8.9840622 66.007568
-3.5730135 8.9493027 66.010269
-3.4201679 8.9646187 66.012436
-3.2681212 8.954895 66.014877
-3.1153309 8.9702072 66.017044
-4.1801181 9.0007248 66.000397
-4.0278087 9.0035172 66.002701
-3.875499 9.0063095 66.005005
-3.2662632 9.0174789 66.014214
-3.113265 9.0453033 66.016251
-2.960376 9.0731239 66.018295
-3.6706085 6.1836467 66.184029
-3.8562546 6.3215404 66.196014
-3.6817322 6.3286347 66.16333
-4.2558899 6.4434066 66.19809
-4.07341 6.4525099 66.175034
-3.9254227 6.4546218 66.116096
-3.8789661 6.4639134 66.163467
-3.7335892 6.4654269 66.101288
-4.6538124 6.5639663 66.198547
-4.4749961 6.5727711 66.173271
-4.2857246 6.5836225 66.158051
-4.1163521 6.5903201 66.121689
-3.9249039 6.6014218 66.107254
-4.6763253 6.704977 66.165871
-4.5299911 6.7258706 66.119041
-4.4363632 6.7393208 66.183372
-4.3903046 6.7469296 66.138527
-4.289547 6.7290454 66.144775
-4.8599815 6.8401971 66.176041
-4.704586 6.844625 66.127243
-4.6873207 6.8482833 66.145157
-4.4624329 6.8673148 66.167572
-4.3466444 6.8868022 66.123627
-4.2120705 6.8733592 66.189819
-4.1937294 6.8698668 66.172806
-4.8767014 6.9819703 66.149323
-4.7098274 6.9890404 66.112495
-4.5819397 6.924336 66.128777
-4.0404181 6.9729781 66.175003
-3.9609108 6.985312 66.172646
-3.8940389 6.9703441 66.150002
-3.7477701 6.9677091 66.125008
-3.6043341 6.9703441 66.150002
-3.4698143 6.9328132 66.13015
-4.4792175 7.0096946 66.1409
-4.3298454 7.0366321 66.112404
-4.1635537 7.014503 66.159698
-4.8417306 7.1349435 66.176437
-4.7035561 7.1359305 66.109688
-4.634491 7.1509986 66.18129
-4.4960136 7.1519647 66.114227
-4.1791844 7.1321168 66.160225
-4.0678029 7.1334419 66.131271
-3.930809 7.1295714 66.1595
-3.8941269 7.1187172 66.13768
-3.7286339 7.1001554 66.172043
-3.6016099 7.1096802 66.099998
-3.459482 7.1150579 66.150002
-3.1888313 7.1106887 66.193626
-3.0130577 7.1187978 66.159653
-4.8469596 7.279213 66.16169
-4.7030449 7.2815843 66.100906
-4.6339798 7.2968688 66.172501
-4.4751401 7.262517 66.175003
-4.3285966 7.2597733 66.150002
-4.1821618 7.25703 66.125008
-4.0358391 7.2542849 66.099998
-3.8731225 7.2623734 66.108147
-3.749187 7.2597728 66.150002
-3.6894817 7.2422137 66.150299
-3.4768887 7.2343407 66.135498
-3.315882 7.262517 66.175003
-3.2409286 7.2475505 66.131798
-3.0476913 7.2596316 66.115524
-4.470068 7.398891 66.099998
-4.3061676 7.3332191 66.120255
-4.1582375 7.3144183 66.18457
-3.7463529 7.398891 66.099998
-3.6594639 7.3859601 66.1371
-3.485157 7.3615985 66.174889
-4.8407044 7.4260316 66.158897
-4.6267557 7.425014 66.169357
-4.4751401 7.4072862 66.175003
-4.3232961 7.4314017 66.147057
-4.183743 7.404489 66.150002
-4.0475931 7.4256678 66.139175
-3.8706322 7.4177642 66.133186
-3.6056969 7.4072862 66.175003
-3.4188004 7.4975438 66.127365
-3.31463 7.404489 66.150002
-3.0237312 7.4129186 66.130043
-4.8287063 7.5741973 66.162071
-4.6161203 7.5694466 66.148911
-4.4734492 7.5492029 66.150002
-4.326961 7.54635 66.125008
-4.1821618 7.54635 66.125008
-4.0592465 7.5743465 66.14566
-3.8954086 7.5729795 66.171234
-3.6043341 7.5492029 66.150002
-3.4916039 7.5125537 66.195923
-3.3133769 7.54635 66.125008
-4.7649531 7.696826 66.175003
-4.61481 7.6881032 66.099998
-4.4742947 7.6953721 66.162506
-4.3177133 7.6708965 66.12336
-4.1821618 7.691011 66.125008
-4.0388918 7.6939182 66.150002
-3.602972 7.691011 66.125008
-3.3504953 7.6644397 66.107056
-3.2422714 7.6217837 66.177261
-3.170975 7.696826 66.175003
-4.8281913 7.7197781 66.153297
-4.5979004 7.7424531 66.181885
-4.2614689 7.776185 66.123535
-4.1227455 7.7589707 66.196335
-4.0861053 7.7513309 66.16227
-3.3589363 7.7838988 66.100861
-3.230545 7.7686601 66.181145
-3.0109673 7.7121091 66.123886
-4.8391647 7.8626628 66.132568
-4.7649531 7.8415952 66.175003
-4.61481 7.8327079 66.099998
-4.5107231 7.8163829 66.15239
-4.4564724 7.8574405 66.138878
-4.325325 7.8327079 66.099998
-4.1821618 7.83567 66.125008
-4.0388918 7.8386331 66.150002
-3.6043341 7.8386331 66.150002
-3.312124 7.8327079 66.099998
-3.170975 7.8415952 66.175003
-3.0104446 7.8604379 66.114944
-4.6183009 7.9833479 66.150002
-4.472322 7.9813366 66.133331
-4.3261433 7.9788227 66.112503
-4.2710457 7.9289765 66.147285
-4.1821618 7.9803319 66.125008
-4.0404181 7.9863648 66.175003
-3.7463529 7.977314 66.099998
-3.6043341 7.9833479 66.150002
-3.3387594 7.9560299 66.110947
-3.2188187 7.9155374 66.185036
-3.170975 7.9863648 66.175003
-4.8041916 8.0164013 66.159637
-4.6486702 8.0221329 66.110657
-4.3455544 8.0694408 66.179688
-4.2419333 8.0664778 66.121254
-3.3718452 8.0857029 66.142929
-4.6251349 8.173481 66.125702
-4.466826 8.1227083 66.158775
-4.3280516 8.1270399 66.14167
-4.1821623 8.1249914 66.125
-4.0358391 8.1219196 66.099998
-3.8910961 8.1219196 66.099998
-3.7477701 8.1249914 66.125008
-3.6056969 8.131134 66.175003
-3.456867 8.1219196 66.099998
-3.3133769 8.1249914 66.125008
-4.6419525 8.2859116 66.116356
-4.4567261 8.2584152 66.147232
-4.2284226 8.2182188 66.138458
-4.1853251 8.2759047 66.175003
-4.0396547 8.2743416 66.162506
-3.8947749 8.2743416 66.162506
-3.7477701 8.2696524 66.125008
-3.602972 8.2696524 66.125008
-3.5250969 8.2562218 66.100624
-3.459482 8.2727795 66.150002
-3.3561716 8.2583485 66.178055
-4.3534355 8.3534184 66.186523
-4.2232933 8.3712711 66.147736
-4.1537762 8.3699245 66.181244
-4.0058441 8.3738155 66.122253
-3.9710732 8.3822079 66.157776
-3.8141479 8.3881779 66.107391
-4.4724369 8.413106 66.17662
-4.3662577 8.4863863 66.158844
-4.2059383 8.4457855 66.159439
-4.0534439 8.4235458 66.162071
-3.8998754 8.4263611 66.164398
-3.5679893 8.4156761 66.155853
-2.9731903 8.4621162 66.114319
-4.6615324 8.5375137 66.15123
-4.5094199 8.515274 66.153862
-3.953167 8.5334206 66.166672
-3.7599831 8.5609579 66.138649
-3.586628 8.5584068 66.118607
-4.1787605 8.6568966 66.136864
-3.7399495 8.604454 66.164505
-3.7259941 8.7039452 66.178223
-3.5599117 8.7123671 66.136223
-3.3060532 8.74226 66.182144
-4.1262016 8.8166199 66.181389
-3.5773752 8.8826752 66.16333
-4.3357811 8.9688492 66.150543
-4.1844893 8.9466019 66.153168
-4.0330887 8.9243622 66.155785
-3.9863815 8.9656448 66.104599
-3.8806148 8.9271545 66.158089
-3.7281418 8.9299469 66.160393
-3.5756679 8.9327469 66.162697
-3.4223959 8.9605789 66.164688
-3.2692325 8.9884033 66.166672
-3.1168694 8.9911957 66.168976
-2.9651399 8.968956 66.1716
-4.6367989 9.0384064 66.145004
-4.4857807 9.0161438 66.147621
-4.3335257 9.0189362 66.149918
-4.1812716 9.0217285 66.152222
-4.0290165 9.0245209 66.154526
-3.8767624 9.0273056 66.15683
-3.7254164 9.0050659 66.159447
-3.5731075 9.0078583 66.161751
-3.4207985 9.0106506 66.164047
-3.268117 9.025959 66.166199
-3.1151457 9.0537872 66.168175
-2.9626012 9.0690994 66.170319
-2.8083713 9.1594963 66.171494
-3.6303902 6.0441155 66.234291
-3.5780144 6.05407 66.287491
-4.603363 6.182344 66.275635
-3.8045158 6.1846471 66.258186
-3.7870941 6.1880221 66.275955
-4.5546684 6.3246779 66.245613
-4.377964 6.3001399 66.292206
-4.2217216 6.3038583 66.242599
-4.1870346 6.3107266 66.27829
-4.0188851 6.3167138 66.240257
-3.9783287 6.3247228 66.281799
-3.8388329 6.3249707 66.213783
-4.792614 6.4177146 66.27417
-4.6198006 6.4251351 66.243179
-4.5456276 6.4494596 66.247299
-4.4235978 6.4371924 66.23571
-4.3854198 6.4474802 66.281342
-4.2327652 6.4480591 66.22187
-4.976069 6.5533948 66.284096
-4.8208137 6.5575042 66.235474
-4.6365509 6.567513 66.216461
-4.5674896 6.5817065 66.288116
-4.4288521 6.5822272 66.220932
-4.3366852 6.5954933 66.275589
-4.9870162 6.6964417 66.263344
-4.8432693 6.6983142 66.202759
-4.549305 6.6256347 66.270477
-4.4757309 6.6120811 66.202538
-4.3367758 6.6935382 66.275002
-4.191649 6.6935382 66.275002
-4.8260422 6.7019181 66.220703
-4.5842323 6.7241931 66.261406
-4.2697792 6.7337165 66.228455
-4.0943718 6.7102027 66.267166
-5.015152 6.8357539 66.224594
-4.9807739 6.84308 66.260567
-4.825531 6.8475165 66.211929
-4.6009903 6.8665709 66.234688
-4.4819021 6.8385258 66.275002
-4.3351402 6.835947 66.25
-4.2304153 6.8768516 66.206848
-4.191649 6.8385258 66.275002
-4.049829 6.8469543 66.2556
-3.8999259 6.835947 66.25
-3.753438 6.8333669 66.225006
-3.6097829 6.835947 66.25
-3.4660189 6.8385258 66.275002
-2.9262199 6.8400578 66.265549
-5.014637 6.9810805 66.215836
-4.9630661 6.9922318 66.269791
-4.825016 6.9931149 66.203156
-4.4802108 6.9808798 66.25
-4.334322 6.9795637 66.237503
-4.1890144 6.9791245 66.233337
-4.0347576 6.985023 66.232948
-3.9975052 6.9923997 66.206764
-3.8722169 6.976501 66.261185
-3.7757299 6.9733782 66.247208
-3.6297188 6.941196 66.265991
-3.4620969 6.9756131 66.200005
-3.320893 6.9835148 66.275002
-3.1016655 6.980783 66.290741
-2.9608536 6.9813828 66.22139
-4.7560997 7.0079761 66.274933
-4.6177406 7.0088391 66.207993
-3.617939 7.0887275 66.269897
-3.5450859 7.0743699 66.201363
-3.3800354 7.0522037 66.247559
-3.215229 7.0300641 66.293549
-5.0141258 7.1264043 66.207077
-4.9453659 7.1414924 66.278992
-4.7555847 7.1537919 66.266136
-4.627028 7.1285028 66.275002
-4.4802113 7.1258144 66.25
-4.3324142 7.1213336 66.208336
-4.188488 7.123126 66.225006
-4.0244937 7.1348877 66.238876
-3.8564224 7.1253085 66.291733
-3.7585826 7.1138897 66.203125
-3.611145 7.1285028 66.275002
-3.3251696 7.1576004 66.221062
-3.167244 7.1697783 66.263016
-4.9505844 7.2857594 66.264229
-4.7481346 7.2749805 66.264328
-4.6261549 7.2721195 66.262497
-4.4793663 7.2693758 66.237503
-4.1869059 7.2652612 66.200005
-4.0434709 7.2680039 66.225006
-3.9467845 7.2827368 66.253334
-3.8263588 7.2695737 66.278549
-3.6084211 7.2680039 66.225006
-3.5515366 7.225328 66.222397
-3.4046249 7.206634 66.285797
-3.1757669 7.2734909 66.275002
-2.9729805 7.2905354 66.295349
-4.6936417 7.3996778 66.27623
-3.3202133 7.3391137 66.221008
-3.1373901 7.3129649 66.249695
-4.9500694 7.4312859 66.255455
-4.8424339 7.4185653 66.211166
-4.7719717 7.4300127 66.252808
-4.6252818 7.4156809 66.25
-4.4802108 7.4156809 66.25
-4.1647301 7.4663138 66.205513
-3.9803543 7.4400039 66.23558
-3.8565049 7.4151573 66.253738
-3.4660189 7.4184799 66.275002
-3.3084755 7.4861541 66.224899
-3.2903137 7.4824052 66.207718
-3.1480093 7.4463329 66.258125
-2.9612732 7.4371934 66.299232
-4.9323678 7.5807462 66.264648
-4.8305206 7.5677867 66.215111
-4.7612991 7.5745029 66.232391
-4.6434317 7.5514164 66.24411
-4.47683 7.5549102 66.200005
-3.9685364 7.5880246 66.239502
-3.8498664 7.5600986 66.243195
-3.7339075 7.554986 66.23793
-3.4647119 7.5606151 66.25
-3.172173 7.5549102 66.200005
-2.9060211 7.5869193 66.238342
-4.6217918 7.6997342 66.200005
-4.5962105 7.6828036 66.216286
-4.4294014 7.6599612 66.264069
-4.2445107 7.6333795 66.294594
-4.1528969 7.614553 66.209442
-3.8969829 7.6997342 66.200005
-3.5526314 7.6750407 66.268379
-3.3330421 7.640799 66.263138
-3.1320591 7.6104059 66.274689
-4.9605026 7.7196774 66.225937
-4.8735147 7.7306857 66.277184
-4.7190781 7.7450328 66.26683
-4.627028 7.708457 66.275002
-4.3440857 7.7933946 66.200012
-4.1777 7.770431 66.247429
-4.0115585 7.7474923 66.294632
-3.9384441 7.7322297 66.226357
-3.7606781 7.7068009 66.25975
-3.4634039 7.702642 66.225006
-3.0573776 7.7290163 66.259567
-2.835186 7.7512193 66.299713
-4.9300394 7.8613272 66.255066
-4.7708836 7.8703694 66.227844
-4.6235371 7.8475204 66.225006
-4.562851 7.8965144 66.208862
-3.9509938 7.8853569 66.253029
-3.8969829 7.8445578 66.200005
-3.7715175 7.8584824 66.287804
-3.4634039 7.8475208 66.225006
-3.0509486 7.873414 66.249016
-2.8698196 7.8921609 66.255585
-4.7703543 7.9954171 66.25
-4.6235371 7.9924002 66.225006
-4.1170197 7.9084468 66.205933
-3.898454 7.9924002 66.225006
-3.4634039 7.9924002 66.225006
-3.0306411 7.9984341 66.275002
-4.8907166 8.0270519 66.280228
-4.7524986 8.0286922 66.213394
-4.5105286 8.0548878 66.253708
-4.1357002 8.0631981 66.238251
-4.0990829 8.0553398 66.204178
-3.9513576 8.0360117 66.268326
-3.2252274 8.0663795 66.2061
-3.0787811 8.0470734 66.269135
-4.7290168 8.1800442 66.228493
-4.6247005 8.139327 66.241669
-4.47683 8.1342068 66.200005
-4.0434709 8.1372786 66.225006
-3.9268224 8.1705313 66.27317
-3.4647119 8.1403503 66.25
-3.172173 8.1342068 66.200005
-3.0579021 8.1706676 66.282623
-4.6252818 8.285284 66.25
-4.4747119 8.2673597 66.262131
-4.3288074 8.2586842 66.215004
-4.1557798 8.2460423 66.227341
-4.0668888 8.2459669 66.241547
-3.7520211 8.2790318 66.200005
-3.6084211 8.2821579 66.225006
-3.4660189 8.2884102 66.275002
-3.2316399 8.2173309 66.227173
-3.1745689 8.285284 66.25
-4.6653328 8.3413544 66.285385
-4.5440369 8.3389874 66.200317
-4.3150024 8.3914814 66.232742
-4.2842102 8.3702221 66.257866
-4.1394768 8.36584 66.27166
-4.0937233 8.3557472 66.229057
-3.9459763 8.3361969 66.293243
-3.4210625 8.396101 66.219307
-3.2743034 8.3765411 66.282616
-4.7406197 8.4590549 66.221878
-4.4917183 8.4979057 66.245117
-4.3367758 8.4333992 66.275002
-4.1900678 8.4302177 66.25
-4.0457606 8.4318085 66.262497
-3.8999259 8.4302177 66.25
-3.7548544 8.4302177 66.25
-3.6084211 8.4270372 66.225006
-3.4634039 8.4270372 66.225006
-3.3196399 8.4302177 66.25
-4.5432739 8.5802612 66.256905
-4.3214817 8.5441446 66.253677
-4.1050396 8.5176754 66.233452
-3.8836288 8.5504227 66.237694
-3.6108551 8.5754566 66.21109
-3.4638176 8.5557613 66.274658
-4.3004799 8.6591835 66.222366
-4.0399857 8.6913605 66.27919
-3.9004974 8.6933537 66.211067
-3.8135605 8.7148819 66.299835
-3.6728115 8.7283058 66.257416
-4.230732 8.823225 66.284828
-3.8130417 8.8623371 66.290947
-3.6383514 8.8731337 66.257889
-3.428421 8.892621 66.259865
-4.7938085 8.9814758 66.295464
-4.0736465 8.9766693 66.225891
-4.7925158 9.0065231 66.295097
-4.6396418 9.021843 66.297218
-4.4868236 9.0371552 66.299332
-3.8929749 5.9001727 66.397446
-3.7358704 5.9033465 66.347031
-3.9098396 6.0440879 66.370766
-3.7469609 6.0485339 66.326302
-4.8973961 6.132854 66.394409
-4.7075119 6.1432347 66.381546
-4.4971976 6.1615872 66.382286
-4.3150353 6.1661782 66.366608
-4.1181793 6.1776118 66.358521
-3.944083 6.1845136 66.326279
-5.1035309 6.2644372 66.380081
-4.9484444 6.268229 66.331627
-4.7586708 6.2788911 66.318878
-4.6897659 6.2926583 66.390717
-4.5512528 6.2929668 66.323647
-4.4712448 6.3082185 66.360855
-4.3087502 6.3138871 66.363739
-4.1350021 6.3210311 66.331818
-5.1201706 6.4063153 66.353279
-4.9479308 6.413774 66.322861
-4.7581558 6.4247088 66.310089
-4.6720276 6.4421887 66.399857
-4.5507393 6.4391112 66.314835
-4.3433199 6.4132242 66.375008
-4.2645683 6.4404378 66.395767
-4.196393 6.4108081 66.349998
-4.0511031 6.4108081 66.349998
-5.1139388 6.5528264 66.350525
-4.7059669 6.5811772 66.355148
-4.4869738 6.5559602 66.349998
-4.3400478 6.5534911 66.325005
-4.1840458 6.5673652 66.320984
-4.0314293 6.5537038 66.351822
-3.907284 6.5584311 66.375008
-5.1248603 6.6957622 66.32975
-4.483593 6.696063 66.300003
-4.3400478 6.6985869 66.325005
-4.1948118 6.6985869 66.325005
-4.0495758 6.6985869 66.325005
-3.9740505 6.6970096 66.356918
-3.759105 6.6985869 66.325005
-3.613869 6.6985869 66.325005
-4.7226791 6.7235522 66.3284
-4.6331367 6.7023754 66.362503
-4.5926018 6.7848001 66.325378
-4.4869738 6.7011132 66.349998
-4.3523521 6.7491889 66.305054
-4.1492958 6.7205062 66.318344
-4.0350609 6.7023015 66.369179
-3.9067934 6.7027965 66.366669
-3.4712491 6.7036381 66.375008
-5.2563362 6.8414931 66.393272
-5.1129127 6.8435135 66.333008
-4.8547134 6.83885 66.370247
-4.7393913 6.8658195 66.301659
-4.6322641 6.8462648 66.350006
-4.4852829 6.8436852 66.325005
-4.3408661 6.8449755 66.337509
-4.1948118 6.8436852 66.325005
-4.0480499 6.8411059 66.300003
-3.9084141 6.8412757 66.322701
-3.8982964 6.8329711 66.300995
-3.7669213 6.8250885 66.374016
-3.324651 6.8462648 66.349998
-3.2253456 6.8354859 66.386566
-3.049572 6.8431582 66.352615
-5.1352692 6.9838967 66.300217
-5.0838203 6.9950557 66.354279
-4.8214912 6.969852 66.349144
-4.779355 6.9940519 66.375008
-4.6313915 6.9901004 66.337509
-4.4852834 6.9887834 66.324997
-4.3384118 6.9861488 66.300003
-3.904341 6.9887838 66.325005
-3.7208061 6.9588714 66.351669
-3.615232 6.9914179 66.349998
-3.5372009 6.9333005 66.381027
-3.4644928 6.9191794 66.312347
-3.317646 6.9007096 66.375687
-3.1805589 6.9940519 66.375008
-4.8771286 7.0108161 66.35968
-4.6239548 7.0934577 66.384232
-3.4709015 7.0701299 66.33342
-3.3240204 7.0515475 66.39679
-3.0506706 7.0079494 66.339317
-5.1176071 7.1329417 66.309479
-5.0661507 7.1442647 66.363525
-4.8937988 7.1528068 66.332932
-4.775136 7.1243467 66.334595
-4.6331367 7.1379147 66.362503
-4.483593 7.1311932 66.300003
-3.902869 7.1311932 66.300003
-3.7354732 7.1229663 66.365295
-3.4712491 7.1392589 66.375008
-3.2578773 7.1879554 66.34906
-3.1781631 7.1338811 66.325005
-3.0027733 7.1475081 66.308708
-2.8565979 7.1288886 66.37146
-5.0656419 7.2897534 66.354759
-4.8932877 7.2985148 66.324142
-4.7784548 7.2830944 66.362503
-4.6340098 7.2844672 66.375008
-4.5752831 7.2354112 66.354202
-3.759105 7.2789788 66.325005
-3.6477957 7.2676501 66.358681
-3.4686339 7.2789788 66.325005
-3.0352139 7.2844672 66.375008
-2.8268547 7.2718129 66.358063
-4.5450172 7.3808074 66.341156
-4.3598824 7.3546386 66.371872
-3.6489983 7.3948836 66.329117
-3.4836884 7.3723598 66.375572
-3.191761 7.3240333 66.301331
-3.0633888 7.3089633 66.381577
-5.0479789 7.4391265 66.363991
-4.8927727 7.4442229 66.315361
-4.775754 7.424077 66.325005
-4.6340098 7.4296741 66.375008
-4.293026 7.492291 66.324722
-4.1266518 7.4696584 66.372116
-3.757689 7.421278 66.300003
-3.615232 7.4268751 66.349998
-3.3259039 7.4296741 66.375008
-3.0247865 7.437644 66.350487
-2.815155 7.4183612 66.361946
-5.0303116 7.5886083 66.37323
-4.9228439 7.5720282 66.349998
-4.8750725 7.593864 66.324539
-4.7739539 7.5663218 66.300003
-4.6305189 7.5691738 66.325005
-4.4963799 7.5223784 66.311111
-3.8939629 7.5840726 66.371895
-3.6255379 7.5558748 66.329018
-3.4537506 7.5161414 66.362297
-3.324651 7.5720282 66.349998
-3.0317841 7.5663218 66.300003
-2.9766693 7.5895433 66.328987
-2.8034554 7.5649104 66.365822
-4.0599518 7.6068301 66.324837
-3.6072197 7.6864619 66.319809
-3.4419746 7.6636167 66.366203
-3.2588615 7.6369987 66.395172
-5.0298004 7.7342067 66.364456
-4.9191351 7.7113652 66.300003
-4.8401756 7.7476077 66.351685
-4.7739539 7.7113652 66.300003
-3.8456535 7.7245793 66.341606
-3.613869 7.714272 66.325005
-3.3233991 7.714272 66.325005
-3.2471085 7.7842555 66.399078
-3.1746674 7.7688441 66.330215
-2.9739914 7.7382078 66.341492
-2.8364763 7.7168994 66.382996
-5.0121346 7.8838525 66.373672
-4.882328 7.8853889 66.30719
-4.777555 7.8623319 66.349998
-3.8156052 7.8687348 66.328415
-3.6410351 7.8544598 66.358643
-3.5954323 7.8341012 66.323715
-3.4302025 7.8110929 66.370102
-3.3586504 7.8313742 66.330383
-2.9622784 7.8849754 66.345383
-2.889869 7.8652949 66.375008
-2.780056 7.8580089 66.373581
-4.7880859 7.9056125 66.396774
-4.6668777 7.9030862 66.311798
-3.6200192 7.989574 66.361908
-3.4184265 7.9585681 66.374008
-3.217247 7.9276071 66.385757
-4.9228439 8.0074854 66.349998
-4.8391457 8.0393505 66.334099
-4.775754 8.004468 66.325005
-4.6319046 8.0573692 66.338837
-3.7785983 8.0099487 66.311424
-3.6165941 8.0105028 66.375008
-3.3233991 8.004468 66.325005
-2.9144363 8.0238266 66.314758
-2.889869 8.0105028 66.375008
-2.7683563 8.0045586 66.377457
-4.8157144 8.1907606 66.349243
-4.7751541 8.1485415 66.316673
-3.9760666 8.1920452 66.306396
-3.7792051 8.1598978 66.329163
-3.6203461 8.1399698 66.377251
-3.3233991 8.1495657 66.325005
-2.9207802 8.1744957 66.335892
-2.7566566 8.1511078 66.38134
-4.777555 8.2977896 66.349998
-4.6305189 8.2946634 66.325005
-4.5796967 8.2160225 66.383774
-3.904341 8.2946634 66.325005
-3.324651 8.2977896 66.349998
-3.032928 8.2946634 66.325005
-4.7693558 8.3479271 66.388321
-4.4058876 8.3726158 66.343323
-3.9824944 8.3442631 66.327393
-3.8166084 8.3206921 66.37439
-3.7862368 8.3114138 66.36319
-3.1096191 8.3529301 66.328568
-2.9451752 8.3293419 66.374298
-4.6322641 8.4429426 66.349998
-4.4844379 8.4381714 66.3125
-4.3408661 8.4413528 66.337509
-4.1940212 8.4381714 66.3125
-4.0495758 8.4397621 66.325005
-3.9495366 8.4770422 66.345879
-3.8230057 8.4728508 66.395416
-3.6125081 8.4365807 66.300003
-3.4699409 8.4429426 66.349998
-3.176965 8.4365807 66.300003
-3.0352139 8.4461241 66.375008
-4.8144827 8.5807343 66.301308
-4.6612988 8.5835419 66.303619
-4.5670328 8.5234251 66.334244
-4.3567376 8.5610504 66.351288
-4.2270484 8.5457869 66.333267
-4.1771078 8.5502806 66.335724
-4.0332317 8.5471344 66.34613
-3.906548 8.5897121 66.362503
-3.7612305 8.5897121 66.362503
-3.6152315 8.5880947 66.350006
-3.4686339 8.5848589 66.325005
-3.3207974 8.562088 66.34404
-3.1521454 8.5122929 66.384117
-2.7095032 8.5248756 66.377815
-4.5436897 8.6637402 66.393112
-4.4221306 8.6614647 66.30777
-4.1674562 8.6784239 66.330467
-3.9862041 8.6469545 66.360855
-2.9731255 8.6426754 66.315567
-4.3646164 8.7052155 66.308624
-4.0414286 8.7700653 66.310303
-3.9505749 8.7551908 66.371094
-3.5428734 8.7241268 66.364304
-4.3525352 8.8254604 66.370399
-4.204525 8.8340721 66.377174
-4.1268845 8.8494148 66.391785
-3.9874306 8.8515186 66.323685
-3.7434998 8.879776 66.361938
-4.180387 8.9864035 66.32119
-4.0332804 8.9703979 66.30735
-3.881398 8.9606705 66.30983
-3.7285516 8.9759827 66.311951
-2.8143678 8.9927444 66.325775
-2.6625299 8.9705048 66.328453
-2.5101118 8.9733047 66.330765
-4.3346238 9.0399437 66.301636
-4.1813507 9.0677719 66.303566
-4.0281868 9.0956116 66.305496
-3.8770607 9.073349 66.308167
-3.7249153 9.0761414 66.310471
-3.5731056 9.0249958 66.315186
-3.4219582 9.0399961 66.315697
-3.2692254 9.0594759 66.317749
-3.1170256 9.0622673 66.320045
-2.9660966 9.0149841 66.323097
-3.1156449 9.1123428 66.319298
-2.9629192 9.1401634 66.32122
-2.8108838 9.142952 66.323517
-2.6583216 9.1707687 66.325439
-2.8091416 9.2180481 66.322395
-2.6562185 9.2708969 66.323936
-2.5039845 9.2987137 66.325851
-3.8065834 5.7690053 66.495422
-5.0188103 5.9903646 66.487816
-4.8463478 5.9971528 66.457199
-4.0324974 5.9002566 66.465492
-3.6139297 5.9262061 66.471466
-4.6563492 6.0072532 66.444244
-4.5770187 6.0345807 66.438522
-4.4314308 6.0239882 66.466751
-4.2348037 6.0351448 66.458916
-4.0666656 6.0407319 66.420921
-3.8229218 6.0607018 66.459824
-5.2246742 6.1222024 66.473198
-5.0697441 6.1258416 66.424919
-4.6041565 6.1635585 66.489319
-4.4654427 6.1637464 66.422073
-4.3973198 6.169889 66.491997
-4.2054405 6.1875987 66.479889
-4.0443344 6.162118 66.448883
-5.241272 6.2640777 66.446365
-5.0006371 6.2851157 66.488297
-4.8625031 6.2854505 66.421623
-4.3306522 6.2867279 66.437973
-4.1995549 6.2703772 66.400002
-4.0541549 6.2703772 66.400002
-3.910228 6.272738 66.425003
-3.767607 6.2774591 66.475006
-4.6380882 6.3029838 66.444588
-5.2578735 6.4058461 66.419533
-5.1894341 6.4198604 66.491821
-5.068718 6.41682 66.407379
-4.9321189 6.4228849 66.475006
-4.7889957 6.4328661 66.467407
-4.639246 6.4204702 66.450005
-4.5413055 6.4819131 66.450363
-4.4928913 6.4192619 66.4375
-4.3247166 6.4337788 66.439941
-4.204298 6.4228849 66.475006
-4.1165009 6.4222817 66.460167
-3.908756 6.415638 66.400002
-3.7661901 6.4204702 66.450005
-5.3778305 6.5540328 66.494995
-5.2516541 6.5522475 66.416801
-5.0757742 6.5658412 66.450005
-4.9284091 6.5633712 66.425003
-4.8271027 6.5841899 66.440018
-4.777698 6.5483832 66.451118
-4.6357551 6.5609012 66.400002
-4.4928913 6.5646067 66.4375
-4.3474092 6.5646067 66.4375
-4.204298 6.5683122 66.475006
-4.1612358 6.5675349 66.440598
-4.0547495 6.564117 66.437614
-3.9072464 6.5547547 66.469734
-3.7654815 6.5646062 66.4375
-3.6206801 6.5658412 66.450005
-3.4764791 6.5683122 66.475006
-5.3773193 6.6991944 66.486252
-5.2568474 6.6962771 66.402023
-4.7884407 6.6696792 66.491287
-4.3259544 6.6025758 66.467926
-3.8416202 6.6815372 66.435211
-3.6880608 6.6620822 66.493378
-3.3489494 6.6902938 66.482292
-5.077683 6.713737 66.475006
-4.9466 6.7190742 66.461502
-4.8437767 6.7265086 66.413239
-4.7820549 6.7074251 66.412506
-4.6409912 6.713737 66.475006
-4.4937372 6.7112131 66.450005
-4.346591 6.7086878 66.425003
-4.1995549 6.706162 66.400002
-3.7654815 6.7099504 66.4375
-3.6126156 6.7978821 66.43721
-3.4473152 6.7760196 66.48362
-3.328409 6.7086878 66.425003
-2.9799461 6.7087369 66.432144
-5.3654304 6.8468032 66.489555
-5.2392235 6.845161 66.411331
-4.9479389 6.862453 66.465393
-4.7612138 6.8372483 66.414757
-4.639246 6.8565841 66.450005
-4.490355 6.8514242 66.400002
-3.7647729 6.8540039 66.425003
-3.633146 6.8399124 66.460045
-3.158864 6.8646097 66.414703
-2.9883308 6.8567891 66.467377
-5.3592262 6.9932418 66.486839
-5.2158952 6.9953952 66.426659
-4.7829552 6.999321 66.425003
-4.6541929 6.9739876 66.407135
-4.5239372 6.9327388 66.479233
-3.763356 6.9966869 66.400002
-3.6099052 6.9474225 66.449707
-3.3901901 6.9148154 66.444504
-2.9224548 6.9930015 66.419426
-2.7763138 6.9744973 66.482147
-4.9641647 7.0078049 66.447189
-4.7865548 7.00459 66.475006
-4.4753456 7.0748076 66.449127
-4.2903061 7.0490899 66.479752
-3.6206801 7.001956 66.450005
-3.5617599 7.0880551 66.419273
-3.4449258 7.0357046 66.466415
-3.1773109 7.0329843 66.460022
-3.0397871 7.00459 66.475006
-5.2210884 7.1394792 66.41188
-5.1868668 7.1470313 66.447983
-5.0147018 7.1555877 66.417572
-4.930264 7.147326 66.450005
-4.7847548 7.1473265 66.450005
-4.2418327 7.1907325 66.44957
-4.0754738 7.1684318 66.496925
-3.619318 7.1446381 66.425003
-3.4764791 7.1500149 66.475006
-3.330915 7.1500149 66.475006
-3.2017288 7.1874499 66.498413
-3.1112976 7.1692948 66.412186
-3.0374999 7.1446381 66.425003
-2.9829216 7.1542773 66.492432
-2.7285957 7.1139121 66.451401
-5.2034607 7.2886357 66.421173
-4.930264 7.2926979 66.450005
-4.4084358 7.2130589 66.401993
-3.5318031 7.2321086 66.406013
-3.4738641 7.2899542 66.425003
-3.3419886 7.2650542 66.450775
-2.9351082 7.2939 66.461761
-2.894222 7.2954412 66.475006
-2.6988945 7.256783 66.437958
-5.1464233 7.3014054 66.481346
-5.0141907 7.3012414 66.408798
-4.1750832 7.328506 66.402313
-4.0088615 7.3060527 66.449554
-3.3186226 7.3498635 66.421799
-3.1538048 7.3273911 66.467819
-2.9711876 7.3012624 66.496323
-2.6692009 7.3995452 66.424515
-2.5234146 7.3807473 66.486938
-5.1430578 7.4476171 66.475578
-5.0136757 7.4468932 66.400017
-4.9274821 7.4338713 66.412506
-3.9605217 7.4470496 66.419281
-3.7946396 7.4244695 66.466232
-3.4725561 7.4324722 66.400002
-3.3296621 7.4380689 66.450005
-3.2887383 7.493484 66.408493
-3.105896 7.467113 66.437218
-2.9414101 7.4445109 66.482933
-2.8902183 7.4356866 66.440536
-5.1211567 7.5981131 66.489357
-4.9265552 7.577734 66.400002
-3.7464104 7.5650926 66.435867
-3.5990334 7.5461287 66.49971
-3.4725561 7.577734 66.400002
-3.3296621 7.5834398 66.450005
-3.1853509 7.5862942 66.475006
-2.9116554 7.5876517 66.469536
-2.8652382 7.5751133 66.400192
-2.711483 7.557344 66.480347
-2.6575089 7.5459857 66.428391
-2.511734 7.5270782 66.490814
-5.1763849 7.6191406 66.465569
-4.9788628 7.6004214 66.427246
-3.5509071 7.6864352 66.469269
-3.0760803 7.610414 66.423859
-2.6458168 7.6924262 66.432266
-2.4820976 7.6695724 66.477325
-4.9696865 7.7393889 66.409348
-4.7829552 7.725904 66.425003
-3.698204 7.7054992 66.40551
-3.4725561 7.7229962 66.400002
-3.3296621 7.7288108 66.450005
-3.1841531 7.7288108 66.450005
-3.0643387 7.7574534 66.42775
-2.881897 7.7306838 66.456139
-2.681797 7.7001071 66.466911
-4.9499221 7.8877358 66.426788
-3.5209541 7.8303809 66.456001
-3.4725561 7.868258 66.400002
-3.330915 7.8771448 66.475006
-3.182955 7.8712201 66.425003
-2.8521538 7.8736067 66.442734
-2.6341286 7.8388667 66.436142
-2.488369 7.8197417 66.498558
-4.9092331 7.908134 66.481674
-3.4910126 7.974216 66.442734
-3.2353516 7.9315143 66.402969
-3.0526009 7.9044919 66.431641
-2.6314259 7.9872808 66.448685
-2.458744 7.9621272 66.485062
-5.0160332 8.0620899 66.430069
-4.9393654 8.0385675 66.433914
-4.7360077 8.0639458 66.441849
-3.4738641 8.0165367 66.425003
-3.2507477 8.0847149 66.432693
-3.181757 8.0135193 66.400002
-3.0498905 8.0535107 66.44416
-2.8584518 8.0243263 66.463913
-4.925354 8.19594 66.446083
-3.6179559 8.1587811 66.400002
-3.4649305 8.1304569 66.440842
-3.181757 8.1587811 66.400002
-3.0291214 8.1985722 66.439423
-2.8598366 8.162961 66.425247
-2.6466942 8.1397552 66.478546
-2.5927696 8.1277428 66.426559
-2.4291344 8.1044044 66.471573
-4.8910446 8.2042522 66.482071
-4.7011147 8.2184525 66.468941
-3.6388474 8.2944632 66.409737
-3.5037079 8.277647 66.484924
-3.449295 8.265583 66.433365
-3.257082 8.2360716 66.453819
-3.0832939 8.2106113 66.491196
-2.6349983 8.2863045 66.48243
-2.5990524 8.2781868 66.447769
-2.4174614 8.2506256 66.475449
-4.7684608 8.3312149 66.428131
-4.5275002 8.3750019 66.42868
-3.6206801 8.3102961 66.450005
-3.2362671 8.3814297 66.449112
-3.182955 8.307169 66.425003
-3.0354347 8.3496799 66.460579
-2.8635278 8.3125696 66.448341
-2.7629623 8.3017197 66.402512
-4.6374998 8.452486 66.425003
-4.4920449 8.452486 66.425003
-3.8412209 8.4769344 66.412537
-3.7647729 8.452486 66.425003
-3.6633885 8.4504976 66.447945
-3.4647083 8.4193354 66.463058
-3.327157 8.4493055 66.400002
-3.1841531 8.4556684 66.450005
-3.0236931 8.4967728 66.464478
-2.9695435 8.4844093 66.412697
-2.8587551 8.4618206 66.475288
-2.7872734 8.4565582 66.440979
-2.6053314 8.4287415 66.468979
-2.4237099 8.4009571 66.496681
-5.1216893 8.5961075 66.449265
-4.7000809 8.5110683 66.451302
-4.6828842 8.5153313 66.469254
-4.5269852 8.5215282 66.419846
-4.4836683 8.5660572 66.449295
-4.3406277 8.5653973 66.402985
-4.1995549 8.5945663 66.400002
-4.0556822 8.5978022 66.425003
-3.6455154 8.5971031 66.446152
-3.4582019 8.5797787 66.429184
-3.2425919 8.5329227 66.47023
-3.181757 8.5945663 66.400002
-4.9672117 8.6239624 66.451164
-4.8128433 8.6518097 66.453056
-4.6519322 8.6650896 66.482674
-4.5068016 8.6574173 66.457687
-4.4937372 8.6010389 66.450005
-4.3012428 8.6916542 66.432854
-4.1230965 8.6780243 66.488937
-3.9069662 8.6213551 66.467453
-3.8384933 8.6271877 66.425011
-3.733819 8.6068907 66.486305
-3.3296621 8.6010389 66.450005
-3.2308216 8.6803436 66.474129
-3.0332539 8.6334543 66.482086
-2.8295708 8.6157856 66.49675
-2.6035004 8.699564 66.474205
-4.3515234 8.7103195 66.459152
-4.0927925 8.710907 66.43631
-3.9131711 8.7497005 66.475006
-3.8721771 8.785882 66.471725
-3.767607 8.7497005 66.475006
-3.6369567 8.7494802 66.471115
-3.4633296 8.733285 66.477234
-3.3542984 8.7249165 66.442863
-4.4742546 8.827692 66.455894
-4.2489204 8.8516655 66.477585
-4.0270829 8.8304453 66.443596
-3.8833542 8.8776932 66.43042
-3.621891 8.8930359 66.453979
-2.7971954 8.8343983 66.48259
-5.103457 8.9217529 66.443832
-4.947669 8.9871712 66.445084
-4.2829437 8.989893 66.432999
-4.1889448 8.9385223 66.457657
-4.0811043 8.9712296 66.479729
-3.7875252 8.9172401 66.407181
-4.7947407 9.0024872 66.447182
-4.6406298 9.0428543 66.448853
-4.4872742 9.0706863 66.450729
-4.3368487 9.0359116 66.453667
-4.1846485 9.0387039 66.455971
-4.0287991 9.0436945 66.468651
-3.8507018 9.0550232 66.471954
-3.7266841 9.0846329 66.462234
-3.6560555 9.0495205 66.441772
-3.5741389 9.0999451 66.464317
-2.9664135 9.0860519 66.473946
-2.8154323 9.0387726 66.477104
-2.6637042 9.0165329 66.479843
-2.511395 9.0193253 66.482147
-2.3586681 9.0471497 66.484016
-2.2064142 9.049942 66.486313
-4.3334618 9.1110458 66.4524
-4.1803527 9.1388779 66.454277
-4.0353246 9.1662626 66.460808
-3.8754261 9.1694946 66.458443
-3.7244093 9.1472397 66.461166
-3.5724294 9.1500244 66.463463
-3.4215152 9.1194229 66.466339
-3.2689648 9.1389055 66.468346
-3.1169469 9.1416903 66.470642
-2.9645052 9.161171 66.472656
-2.8119421 9.1889877 66.474525
-2.6600161 9.1917725 66.476822
-2.9632325 9.2112427 66.471802
-2.8101988 9.2640915 66.473236
-2.6579089 9.2919083 66.475098
-2.5069101 9.2571449 66.478043
-2.3549123 9.272438 66.480118
-4.1377831 5.759748 66.578026
-3.9983368 5.7595611 66.510071
-5.1230392 5.8512626 66.599228
-4.9678764 5.8545604 66.550735
-4.7781143 5.8644013 66.538025
-4.5707321 5.8774981 66.5429
-4.3801498 5.8872876 66.529381
-4.1891785 5.8970551 66.515488
-5.1738548 5.9868979 66.536209
-4.063314 5.9933619 66.550003
-3.9175861 5.9933619 66.550003
-3.7365417 5.9295859 66.557785
-4.5271511 6.0322471 66.578995
-4.4834671 6.0261922 66.554482
-4.3969002 6.0306497 66.502609
-4.1021385 6.060657 66.596069
-3.9452667 6.0640082 66.545868
-5.3452263 6.1253419 66.55748
-4.9325562 6.1529775 66.569229
-4.7513008 6.1616664 66.547409
-4.2461896 6.1426477 66.54451
-3.9146421 6.1343398 66.5
-3.771858 6.1389518 66.550003
-5.3617897 6.2671618 66.530609
-5.1386108 6.2847714 66.55481
-5.0834122 6.2845421 66.550003
-4.9453969 6.2640772 66.574135
-4.7919555 6.2845421 66.550003
-4.6453543 6.2833614 66.537506
-4.5013447 6.2857227 66.5625
-4.4988079 6.2821808 66.525002
-4.3547711 6.2845421 66.550003
-4.2060518 6.2868695 66.549805
-3.6261289 6.2845421 66.550003
-4.8734322 6.3414702 66.556915
-4.7475204 6.3324738 66.555588
-5.3651762 6.4174209 66.535149
-5.2271762 6.4277158 66.525002
-5.0795932 6.4253011 66.5
-4.9269586 6.4404387 66.572342
-4.7910547 6.4289236 66.537506
-4.643609 6.4265084 66.512497
-4.4988079 6.4277158 66.525002
-4.3547711 6.4301319 66.550003
-4.209043 6.4301319 66.550003
-4.063314 6.4301319 66.550003
-3.9525788 6.4194007 66.552032
-3.7732739 6.432548 66.575005
-3.6261292 6.4301319 66.550003
-5.4811974 6.5605636 66.597282
-5.367816 6.566658 66.531555
-5.2252111 6.5707822 66.5
-4.9417949 6.5803714 66.549934
-4.8555756 6.5301347 66.538269
-4.7901549 6.5732522 66.525002
-4.6654539 6.5396657 66.543259
-3.974987 6.5559173 66.545486
-3.7719069 6.5428061 66.547081
-3.623405 6.5707822 66.5
-3.481709 6.5781922 66.575005
-3.33342 6.5732522 66.525002
-4.6395264 6.6513276 66.556442
-4.5844612 6.6411757 66.505371
-3.7153454 6.667213 66.519135
-3.5498219 6.6454935 66.565727
-5.4806824 6.7057252 66.588531
-5.3748679 6.721313 66.550003
-5.2252111 6.7162619 66.5
-5.0792079 6.7226796 66.567436
-4.9367561 6.7200494 66.537506
-4.7901549 6.7187872 66.525002
-4.5725441 6.7904496 66.509323
-4.4239235 6.7720189 66.574226
-3.6240859 6.7175245 66.512497
-3.5289497 6.7916427 66.561035
-3.480401 6.721313 66.550003
-3.3094101 6.7593837 66.555672
-3.2551117 6.748981 66.503952
-3.186548 6.7162619 66.5
-3.0790882 6.7195702 66.534782
-2.9258575 6.7053962 66.595573
-5.4801712 6.8508878 66.579788
-5.3768878 6.869482 66.575005
-5.2271762 6.8643222 66.525002
-5.1023369 6.8745017 66.555832
-5.0815029 6.8643217 66.525002
-4.939538 6.869482 66.575005
-4.7883549 6.861742 66.5
-4.1905098 6.8887229 66.574539
-3.4790931 6.8643222 66.525002
-3.3359261 6.869482 66.575005
-3.2433472 6.8963485 66.507851
-3.0609145 6.8706408 66.551888
-2.8420601 6.8383813 66.530212
-5.4626312 6.9997745 66.589157
-4.3571053 6.9107184 66.526993
-3.4808693 6.932447 66.53054
-3.3338242 6.9139581 66.594063
-2.8843689 6.9959064 66.586044
-2.6483002 6.9595723 66.562073
-5.3250809 7.0006928 66.523033
-5.2567902 7.0155902 66.595421
-5.1189308 7.0164866 66.528984
-5.0834122 7.0124922 66.550003
-4.9358292 7.0098577 66.525002
-4.1238518 7.0269437 66.527191
-3.9758606 7.0083575 66.591537
-3.4777861 7.0072231 66.5
-3.3346729 7.0124922 66.550003
-3.2677612 7.0508666 66.546234
-3.1029587 7.0287261 66.592224
-3.0307579 7.0144362 66.523102
-2.898576 7.0151272 66.575005
-2.6006699 7.0989404 66.53125
-5.3131866 7.1485362 66.526337
-5.2733498 7.1573539 66.568558
-5.1355324 7.1583619 66.502151
-5.081502 7.1553931 66.525002
-4.9367566 7.1567383 66.537506
-3.909359 7.1461558 66.544067
-3.3321669 7.1527038 66.5
-3.1895435 7.1594267 66.5625
-3.037056 7.1651587 66.544281
-2.8685539 7.1446438 66.55674
-5.2899132 7.2990088 66.541687
-4.7883549 7.2981849 66.5
-3.8610916 7.287271 66.513718
-3.7134895 7.2685046 66.577744
-2.8068962 7.2788463 66.54187
-2.7888985 7.2751689 66.524551
-2.5530548 7.2380891 66.500412
-2.4432182 7.2267499 66.597519
-5.2624021 7.3037367 66.563591
-5.0834112 7.3036718 66.550003
-4.939538 7.306416 66.575005
-3.4998589 7.3867612 66.593903
-3.187747 7.3009281 66.525002
-3.044359 7.306416 66.575005
-2.7527931 7.306416 66.575005
-2.6131859 7.399385 66.573715
-2.41362 7.3694129 66.584
-5.250423 7.452189 66.570274
-5.0815029 7.4464636 66.525002
-4.7883549 7.443665 66.5
-3.6471634 7.4056058 66.530136
-3.1871476 7.4450645 66.512497
-3.044359 7.4520602 66.575005
-2.7627075 7.4298005 66.529846
-2.6311455 7.4031119 66.59108
-5.0795932 7.5891471 66.5
-4.7883549 7.5891471 66.5
-3.4518089 7.5271831 66.5634
-3.187747 7.592 66.525002
-3.044359 7.5977058 66.575005
-2.7490983 7.5784588 66.520004
-2.5835342 7.5422063 66.560242
-2.3840218 7.5119662 66.57048
-5.2248611 7.6046643 66.59198
-3.4218941 7.6711879 66.550095
-2.5538883 7.6849194 66.546761
-2.3723488 7.6582427 66.574356
-5.0844617 7.746521 66.515266
-3.187747 7.737535 66.525002
-3.043216 7.7404418 66.550003
-2.7337308 7.7212086 66.500778
-5.0828166 7.8901887 66.537468
-3.3738785 7.8112292 66.519577
-3.1889451 7.8860321 66.550003
-3.042073 7.88307 66.525002
-2.7278771 7.8672771 66.502724
-2.5421944 7.8314137 66.550636
-2.351717 7.8025751 66.569519
-5.1939697 7.9467092 66.578415
-5.0416985 7.9079537 66.554474
-3.3620911 7.9588685 66.523483
-3.2151833 7.9396253 66.586914
-2.5484352 7.9818549 66.571884
-2.4766846 7.9660716 66.502434
-2.3221455 7.9448843 66.556
-5.0240722 8.0579462 66.563713
-4.9376841 8.0316229 66.550003
-4.8572655 8.0664215 66.526863
-3.3321669 8.025588 66.5
-3.2034035 8.0871544 66.59082
